# .PCD v0.7 - Point Cloud Data file format
VERSION 0.7
FIELDS x y z
SIZE 4 4 4
TYPE F F F
COUNT 1 1 1
WIDTH 1500
HEIGHT 1
VIEWPOINT 0 0 0 1 0 0 0
POINTS 1500
DATA ascii
53.058525 -1.4552231 3.5912378
32.743317 -0.24720144 -0.24535118
41.659035 -0.51066476 0.24631573
40.478531 -0.5345282 0.8905099
50.385342 -0.859631 1.7961104
52.770935 -0.99477828 2.6862602
51.922859 -1.0404586 3.4641738
33.917469 -0.022705065 -0.31037733
39.41383 -0.16733469 0.20471627
40.40731 -0.23679192 0.83818561
50.260723 -0.49261728 1.7296793
50.32497 -0.56149352 2.5196576
53.110577 -0.69633597 3.4649367
33.759727 0.23011552 -0.3545897
34.379753 0.17845316 0.18002754
40.168964 0.062145624 0.77922672
50.055138 -0.12716213 1.655023
49.938236 -0.19370569 2.4345183
51.005573 -0.28187931 3.2765467
31.779741 0.48191372 -0.36066675
34.315155 0.42970842 0.12832943
37.780209 0.36586148 0.70009166
51.25391 0.22116917 1.6068184
50.784748 0.15551901 2.3910599
50.892056 0.084264666 3.1927433
33.966053 0.72439152 -0.46489725
34.217602 0.67930084 0.073377989
34.341034 0.63487017 0.61702371
51.591557 0.5899474 1.530836
50.915409 0.52019018 2.3137286
50.633617 0.44725099 3.0965066
33.957615 0.97295034 -0.52521765
34.070118 0.92663741 0.015104542
34.076576 0.87942612 0.55646104
51.784386 0.95165604 1.4478692
50.76733 0.87422496 2.2219594
16.191296 0.65710056 1.2981994
33.978329 1.2180635 -0.58917463
19.251373 0.93014872 0.13100901
34.119354 1.1231737 0.4932633
34.143841 1.0752858 1.0365088
51.018265 1.2343274 2.1366191
16.237114 0.78122944 1.2674311
34.491989 1.4756606 -0.67215246
19.232477 1.0748276 0.090477169
19.114202 1.043493 0.41074508
35.02232 1.3411801 0.98265296
42.678585 1.4341378 1.7776484
16.259909 0.9060182 1.2337667
34.246555 1.7208467 -0.73871905
34.112148 1.6666157 -0.19117987
18.918413 1.1821526 0.36851034
38.765381 1.6948906 0.95969832
18.880898 1.1232381 0.99819738
16.334709 1.0314766 1.2011417
33.737141 1.8977139 -0.26183158
19.096527 1.3305526 0.32320529
19.058338 1.2985379 0.64020056
19.06609 1.2689567 0.95852774
16.589436 1.1617546 1.1720489
33.700588 2.1849141 -0.87801474
18.838305 1.4886632 -0.036872022
18.93096 1.463828 0.27702084
18.972683 1.4359088 0.59252352
16.60726 1.2863337 1.132283
20.583094 1.7473555 -0.46595865
20.655796 1.7178577 -0.12746286
18.696577 1.5907487 0.22992332
19.020054 1.5749615 0.54490942
16.737246 1.4409481 0.81053752
16.519318 1.4030726 1.0863591
20.249531 1.8770945 -0.50839645
20.721716 1.8711592 -0.18395723
18.568232 1.7185674 0.18179202
16.006248 1.5522994 0.47913551
16.642307 1.5574433 0.76458573
16.505291 1.5233809 1.0408934
20.34553 2.0292764 -0.57018149
20.013819 1.9747013 -0.22191592
18.603706 1.8550348 0.12871765
16.114185 1.67588 0.4340052
16.240864 1.655295 0.71004075
16.258684 1.6286154 0.98729277
20.474432 2.1852179 -0.63546473
20.584074 2.1583138 -0.29863521
18.956617 2.0140533 0.068642721
16.153023 1.7695503 0.66067994
16.281635 1.7506911 0.93901539
20.339792 2.3224661 -0.69321084
18.861418 2.1761291 -0.30523041
16.163256 1.9153627 0.33568284
16.122215 1.8839803 0.6102457
16.228874 1.863366 0.88833368
19.734264 2.4167771 -0.72673494
19.978586 2.4033582 -0.4061799
16.260323 2.0681236 0.0055898642
16.171389 2.0324581 0.28359073
16.279011 2.0130239 0.56085396
16.13517 1.9742578 0.83337826
20.182539 2.5993395 -0.81761062
19.914036 2.5400543 -0.47020051
16.172617 2.1789091 -0.047366187
16.201427 2.1527705 0.22894308
18.578695 2.3253057 0.52033931
16.164251 2.0932307 0.78054267
15.941566 2.3316233 -0.64535373
16.045216 2.3121722 -0.37517664
16.116961 2.2889967 -0.10149676
19.76255 2.5962424 0.13056351
18.406815 2.4408233 0.45713514
18.684998 2.4326594 0.77139229
13.631126 2.2080495 -0.56436467
16.011543 2.4235039 -0.43217996
16.159056 2.4087064 -0.16233625
19.89958 2.7494671 0.058756545
30.008476 3.6947761 0.39337605
18.494225 2.5453463 0.70269907
13.618907 2.3061774 -0.61643368
19.365856 2.9011228 -0.6564154
19.431576 2.8726094 -0.33192915
19.934986 2.8900931 -0.013902434
30.017941 3.8941877 0.28969339
30.050619 3.8475547 0.77641118
11.547279 2.1630006 -0.53086585
20.609577 3.1764634 -0.79540539
19.321575 2.9933753 -0.40147507
20.026251 3.0362678 -0.089807875
20.501669 3.0512228 0.24406186
30.05212 4.0461755 0.66957605
11.612255 2.2570677 -0.58472079
19.725922 3.2120557 -0.82779992
19.791655 3.1822729 -0.49541491
20.251066 3.1985724 -0.17345786
20.517082 3.1921022 0.16539894
30.064716 4.2426968 0.55934846
11.607529 2.340992 -0.63503212
18.307642 3.1657228 -0.82188272
9.6126223 2.0432813 -0.12573609
18.363411 3.1009667 -0.19834146
18.390203 3.0711789 0.11283406
18.421999 3.0414069 0.42501721
17.9818 3.2839398 -1.1882608
13.595324 2.6647098 -0.60130537
9.5635023 2.1081033 -0.16790682
9.0474377 2.0206909 0.02850909
18.484856 3.2062879 0.037171856
18.612307 3.1879179 0.35002515
17.423048 3.328074 -1.220804
9.3839045 2.17542 -0.38064215
9.3341084 2.147773 -0.20067129
9.2573996 2.1173689 -0.022114212
17.904133 3.2530711 -0.02934722
18.010658 3.2331047 0.27619243
16.873541 3.3652983 -1.2524456
9.352807 2.2400424 -0.42388561
9.2950525 2.2109706 -0.24311835
9.491272 2.2173338 -0.075284377
17.371529 3.297107 -0.09334366
17.470081 3.277143 0.2041063
16.36108 3.4018409 -1.2842546
9.346653 2.3069999 -0.46983108
9.34272 2.2843938 -0.29216003
8.9484348 2.2056611 -0.097578272
16.836176 3.3336558 -0.15550038
16.939676 3.3161211 0.13422956
14.249115 3.1775231 -1.1630481
9.3474569 2.3756645 -0.51855129
9.2111139 2.3326995 -0.33179122
9.1364746 2.3002324 -0.15255605
16.341833 3.3704906 -0.21666248
16.444361 3.3530438 0.065993413
9.3432684 2.4648066 -0.74628323
14.029272 3.1735408 -0.70756239
9.3155527 2.3938203 -0.2097031
9.4330034 2.3915403 -0.037057821
14.313984 3.1291559 0.035372168
9.3311834 2.5302165 -0.79651892
12.936549 3.1153145 -0.93398088
13.82826 3.2341337 -0.76333934
13.849241 3.2063899 -0.51664704
9.2736588 2.4322789 -0.079886951
13.901019 3.1563427 -0.023416609
9.3271933 2.5722926 -0.66820592
13.839315 3.327198 -0.83549851
13.841383 3.2963414 -0.58623832
9.2885561 2.4986298 -0.13001293
13.884236 3.2438476 -0.092374019
13.802507 3.4442632 -1.1559221
9.3023243 2.610358 -0.53847897
13.844474 3.3881397 -0.65858805
13.858498 3.3588467 -0.410108
9.286561 2.5410917 -0.0036665015
11.678105 3.1694741 -1.2342371
9.0535564 2.6522586 -0.74708688
9.4216404 2.6968839 -0.60274351
9.2755251 2.6465385 -0.41006458
13.867657 3.4490395 -0.48373768
11.86957 3.0627904 -0.15578987
9.018672 2.7321103 -0.97423762
11.410316 3.1663039 -1.0530249
8.9055176 2.6635313 -0.61033207
9.4565516 2.7427692 -0.47691658
11.593623 3.1160657 -0.42228332
11.676225 3.1045628 -0.21257766
11.084688 3.2066467 -1.294173
8.9472551 2.7563779 -0.84462935
8.9523497 2.7332556 -0.66806781
11.285959 3.1595736 -0.67915606
9.1822023 2.7312493 -0.33349898
11.377591 3.1232896 -0.26277646
11.078433 3.2790682 -1.3615198
11.13729 3.2602963 -1.1559833
8.9017849 2.7830148 -0.71771884
11.192266 3.2132063 -0.73723161
11.224145 3.1930161 -0.52884287
9.108819 2.7549348 -0.2070193
11.001659 3.3352685 -1.4192091
11.130071 3.3315377 -1.2225051
11.1531 3.3066106 -1.0118251
11.056855 3.257515 -0.79066354
11.1832 3.2553699 -0.59167594
11.224036 3.2366388 -0.38407928
10.897345 3.3527982 -1.2612582
10.956161 3.3354881 -1.0585253
10.962269 3.3081527 -0.84921879
10.942537 3.2756462 -0.63867742
11.233842 3.3074853 -0.45069042
6.9466162 2.5804696 -0.95585352
11.069091 3.4599054 -1.3536923
10.942125 3.4013932 -1.1248807
10.84891 3.351732 -0.90584046
10.934496 3.3417597 -0.70500839
11.227726 3.3759594 -0.51867074
11.049052 3.5260773 -1.4230337
11.118834 3.5095026 -1.216148
10.883588 3.4272051 -0.97681093
10.843047 3.3887143 -0.76517302
11.199841 3.4371107 -0.58374232
7.1274524 2.7181115 -1.0849179
10.846812 3.4852417 -1.043382
11.110201 3.514606 -0.85878736
10.850101 3.4284401 -0.62611026
6.675148 2.6590307 -1.0633187
10.290431 3.453408 -1.2522191
11.165596 3.624208 -1.1501677
11.188662 3.5979757 -0.9376716
11.060691 3.5400615 -0.71281391
6.5794849 2.6803331 -1.0972162
7.7026677 2.9276092 -1.1260701
9.8854074 3.4197896 -1.2650871
10.401005 3.5107896 -1.1307361
10.531298 3.5111966 -0.94045925
11.599939 3.7282689 -0.83127183
6.5116205 2.708498 -1.1361313
7.0837021 2.8248358 -1.0838871
8.0846558 3.0433972 -1.0746255
10.211523 3.5266094 -1.1765077
10.883915 3.6557722 -1.0494336
11.415297 3.7501128 -0.88823599
6.4220228 2.7281952 -1.171309
6.7398796 2.7845712 -1.0796896
7.6305099 2.9812164 -1.0656755
10.1998 3.5838628 -1.2452688
10.470057 3.6186507 -1.073992
11.143323 3.7502086 -0.93640566
6.3373823 2.7493708 -1.2082827
6.6224756 2.7980406 -1.1137991
7.4544344 2.9837816 -1.0953686
7.5876493 2.9922233 -0.95444697
9.9808998 3.5587378 -1.0869043
10.981663 3.7731724 -0.99525136
6.2270174 2.7614639 -1.2385732
6.4326744 2.7911487 -1.1318247
6.8199425 2.8668294 -1.0503769
7.6597338 3.0563552 -1.0222342
7.6192293 3.0218811 -0.85451585
10.110451 3.6178913 -0.97225499
6.1384907 2.7790644 -1.2730768
6.3302631 2.8051417 -1.1658735
6.5686469 2.8436778 -1.0628173
7.4956441 3.0599735 -1.0558281
7.5941024 3.0600042 -0.90810096
10.552355 3.7862234 -1.0957795
6.1055942 2.8095615 -1.318761
6.2536879 2.8247821 -1.204119
6.6091523 2.8942537 -1.1226063
6.7363501 2.9045475 -0.99454403
7.6523399 3.1193838 -0.97460455
9.9047747 3.6761489 -1.0901741
6.0558515 2.8350427 -1.3621864
6.1583428 2.8370464 -1.2384564
6.3748465 2.8716955 -1.1349778
6.7560134 2.9499679 -1.0520904
7.2998943 3.0693791 -0.98107481
7.7802749 3.1705923 -0.88655144
5.768146 2.791676 -1.3514861
6.084836 2.8548181 -1.2770071
6.2616568 2.8789089 -1.1670609
6.6100597 2.9496336 -1.0822967
7.3215156 3.1164906 -1.0424032
7.7135344 3.1965902 -0.93695617
5.449791 2.7366028 -1.3314786
6.0609632 2.8851185 -1.3257748
6.1951413 2.8974009 -1.2085447
6.365972 2.9206474 -1.0946735
7.2023191 3.1246045 -1.0814213
7.399909 3.1534793 -0.95250708
5.1721902 2.6899905 -1.3172648
5.9518466 2.8900228 -1.355197
6.0939431 2.9051917 -1.2415663
6.2677684 2.9290187 -1.1306447
6.6666689 3.0157773 -1.0524971
7.3829155 3.1882527 -1.0086682
4.8728647 2.6339588 -1.2933903
5.6286688 2.8299999 -1.3369905
6.0394187 2.9242613 -1.283989
6.1795197 2.9388845 -1.1674042
6.2709861 2.9410141 -1.0405983
7.0992017 3.1481624 -1.0237806
4.6132898 2.5866709 -1.2772878
5.326335 2.7749739 -1.3200395
6.0206127 2.9529216 -1.3340408
6.1180711 2.9555776 -1.2091849
6.2164955 2.9592552 -1.0841665
6.9771852 3.1510799 -1.0626165
4.3944311 2.5491481 -1.268795
5.0380287 2.7192912 -1.3022029
5.8382711 2.9324958 -1.3481764
6.0199757 2.9606719 -1.2436575
6.1501579 2.9724965 -1.1244686
6.4835038 3.0443528 -1.0374721
4.1409659 2.4983165 -1.2482082
4.7606816 2.6648204 -1.2831764
5.5261559 2.8710423 -1.3312306
5.9992776 2.9861438 -1.2932057
6.1304231 2.9991484 -1.1748416
6.2773809 3.0178034 -1.0566064
3.9162996 2.4542232 -1.2316474
4.5250854 2.6191633 -1.2719136
5.2359529 2.8126469 -1.3158529
5.9636998 3.007498 -1.3393415
6.0502391 3.007479 -1.212873
6.1675048 3.0164001 -1.091092
3.7055886 2.4117637 -1.2158586
4.2904921 2.5730648 -1.2576852
4.946826 2.7516787 -1.2968395
5.7012501 2.9580619 -1.3357338
5.9850087 3.0176368 -1.2526596
6.1418815 3.0395653 -1.1399903
3.5107572 2.3732989 -1.2024912
4.0371704 2.5179691 -1.2357585
4.6755786 2.6946158 -1.2792523
5.4101148 2.8979757 -1.3226523
5.9613819 3.0410306 -1.3025371
6.0756836 3.0490189 -1.1819141
3.3150346 2.3315215 -1.1876293
3.8106825 2.468714 -1.219012
4.4500098 2.6484792 -1.2690952
5.1052108 2.8302116 -1.3026813
5.8873005 3.0466108 -1.3410201
5.9976039 3.0544591 -1.2204133
3.1322327 2.29233 -1.1733849
3.6060357 2.4246492 -1.204504
4.1947908 2.5906711 -1.2496276
4.8340683 2.7703474 -1.2865574
5.5813885 2.9797637 -1.3269769
5.9592032 3.070775 -1.267354
2.9692719 2.2584176 -1.1623743
3.4172711 2.3844202 -1.1914299
3.9663746 2.5393729 -1.2332067
4.5788422 2.7133322 -1.2720264
5.2775846 2.9095504 -1.3104399
5.9396472 3.0921772 -1.3165451
2.8143041 2.2249429 -1.1523186
3.2434568 2.3461771 -1.1810982
3.7409587 2.4878619 -1.2147992
4.3623343 2.6658537 -1.2641251
4.9877048 2.8414817 -1.2915547
5.7566948 3.0607045 -1.331443
2.6573775 2.1899362 -1.139468
3.0676844 2.3064017 -1.1679717
3.5275345 2.4369285 -1.1973305
4.1112213 2.6049075 -1.243143
4.7335105 2.7838321 -1.279153
5.4569206 2.9899611 -1.3170233
2.5430894 2.167372 -1.1378503
2.8979089 2.2666771 -1.1538337
3.3596773 2.4003575 -1.1897781
3.8720295 2.5465124 -1.2227823
4.4913454 2.7254558 -1.265874
5.1621819 2.9180887 -1.3007677
2.4090371 2.1367624 -1.1283798
2.7450123 2.2311404 -1.1431003
3.1820109 2.3575523 -1.1771356
3.649719 2.4919875 -1.2038517
4.2571044 2.6693318 -1.2522457
4.8803649 2.8484845 -1.2831551
2.2740238 2.1048136 -1.1170979
2.5921533 2.1942997 -1.130551
3.013267 2.317193 -1.165127
3.4730461 2.4498515 -1.1951547
4.0100594 2.6065519 -1.231565
4.6312742 2.7878904 -1.2702222
2.1400125 2.0725827 -1.1038371
2.4838579 2.1722624 -1.1308838
2.8495221 2.2768497 -1.1521109
3.2844944 2.4033852 -1.1810584
3.7769351 2.5462339 -1.2105106
4.3981385 2.7288415 -1.2570659
2.021914 2.0436766 -1.0951308
2.360796 2.1423535 -1.1233436
2.6996949 2.2392855 -1.1406955
3.1138573 2.3599961 -1.169534
3.5894125 2.4994502 -1.2005183
4.1590824 2.6669753 -1.2403023
1.9058154 2.0146816 -1.0854293
2.2347727 2.1111951 -1.114987
2.5587883 2.2043262 -1.1309011
2.9580674 2.3213944 -1.1592888
3.4108486 2.4539671 -1.1903309
3.9230626 2.6039097 -1.2217108
1.8006021 1.9893479 -1.0771819
2.0998702 2.0756519 -1.1002321
2.4466407 2.1777267 -1.1289231
2.804311 2.2818761 -1.1491942
3.2333243 2.4070566 -1.1773362
3.6999648 2.5432713 -1.2027495
1.7142609 1.9687476 -1.0752929
1.9877663 2.0471137 -1.0924892
2.3256114 2.1470597 -1.122521
2.6595147 2.2436583 -1.138905
3.0726409 2.365479 -1.168575
3.5263932 2.4984386 -1.1955041
1.612082 1.9423732 -1.0662049
1.8737016 2.0172017 -1.0829383
2.197665 2.1132233 -1.110541
2.5097971 2.2026582 -1.1250042
2.910037 2.3210654 -1.1552026
3.348902 2.4507 -1.1836557
1.5129015 1.9161035 -1.0571048
1.7735187 1.9912144 -1.0758169
2.073715 2.079685 -1.0995321
2.4006822 2.1751766 -1.1231726
2.7504311 2.276756 -1.1418183
3.1783705 2.404351 -1.1726078
1.4236401 1.892632 -1.050609
1.6743354 1.9652621 -1.0686915
1.9577214 2.04773 -1.0903068
2.2767291 2.1419556 -1.1141384
2.6215115 2.2428501 -1.1359247
3.0257185 2.3619072 -1.1629854
1.3354161 1.8678914 -1.0422932
1.5841093 1.9407688 -1.0623581
1.8546121 2.019506 -1.0825276
2.1587725 2.1089442 -1.1050799
2.465909 2.1980457 -1.1185753
2.8631492 2.3165066 -1.1497722
1.2491568 1.8440487 -1.0328232
1.4998417 1.9177892 -1.0578166
1.7525036 1.9911582 -1.0737571
2.0348952 2.0731153 -1.092414
2.3786664 2.1752439 -1.1221025
2.7046158 2.2699418 -1.1347269
1.1708519 1.8221064 -1.0271115
1.4145776 1.8944573 -1.0513046
1.6623112 1.965837 -1.0685699
1.9288578 2.0428133 -1.0849644
2.2557492 2.1409125 -1.1122358
2.5906475 2.2380219 -1.1315758
1.0975074 1.801484 -1.0222082
1.3204685 1.8659127 -1.0395399
1.5760801 1.941801 -1.0641952
1.8228233 2.0121937 -1.0755402
2.132905 2.1042905 -1.1007119
2.4489603 2.1963141 -1.1178018
1.0281266 1.781829 -1.016143
1.2372048 1.842492 -1.0320327
1.4868914 1.9160388 -1.0560421
1.7326663 1.985886 -1.0705117
2.0219789 2.0705366 -1.0917839
2.3607547 2.172332 -1.1205045
0.95678216 1.7611178 -1.0102446
1.1668566 1.8221328 -1.0281047
1.4106175 1.8934969 -1.0524555
1.6425105 1.9594196 -1.064496
1.9149801 2.0388956 -1.0825226
2.240941 2.1351452 -1.1111017
0.89139879 1.7416024 -1.004163
1.0975446 1.8006631 -1.0233439
1.3234643 1.8666592 -1.043466
1.561276 1.9355578 -1.0601013
1.8218613 2.0113378 -1.0766778
2.1181335 2.097378 -1.0987495
0.83689463 1.726383 -1.0034848
1.0341204 1.7826803 -1.0200577
1.2501562 1.8448913 -1.0377343
1.4731586 1.9076985 -1.0512743
1.719896 1.9787259 -1.0665678
2.0092072 2.063535 -1.0888265
0.77550894 1.7070073 -0.99738735
0.9558931 1.7579714 -1.0097274
1.1749208 1.8209217 -1.0313407
1.3959215 1.8839763 -1.0468634
1.6396943 1.954071 -1.0633148
1.9161588 2.0340037 -1.0832989
0.72004473 1.6902902 -0.99391013
0.8985005 1.7392111 -1.0065752
1.1066082 1.799487 -1.0265762
1.318689 1.8597783 -1.0394906
1.5575339 1.9278837 -1.0572668
1.8161554 2.0026071 -1.0740095
0.66461563 1.6725866 -0.99059153
0.83611506 1.7198005 -1.000482
1.034339 1.7762914 -1.0180374
1.2474134 1.8372523 -1.0348967
1.4822941 1.9043901 -1.0538352
1.7300677 1.9743067 -1.0682951
0.60423368 1.6527697 -0.98152822
0.78168553 1.7021317 -0.9971593
0.96802807 1.7546091 -1.0112902
1.1751777 1.8132285 -1.0275041
1.4011372 1.8777616 -1.0448215
1.6429466 1.9467996 -1.0614392
0.55968815 1.6388857 -0.98065114
0.72525841 1.6842344 -0.99285764
0.9086746 1.734475 -1.0063306
1.1049393 1.7894332 -1.0210905
1.3298965 1.8542488 -1.0403866
1.5717379 1.9226174 -1.0591372
0.50626206 1.6207758 -0.97436279
0.68274516 1.6695923 -0.99311823
0.85228109 1.7157497 -1.0031748
1.0416234 1.768173 -1.0163058
1.2527356 1.8279186 -1.0323441
1.4906131 1.8953197 -1.0522568
0.45979238 1.6043727 -0.97084922
0.62831873 1.6516061 -0.98782122
0.80181259 1.6993659 -1.0006647
0.97831059 1.7465954 -1.0095466
1.1914171 1.8068868 -1.0285386
1.4184097 1.8706266 -1.0469973
0.41232622 1.5876175 -0.96536517
0.57196754 1.6311008 -0.97988772
0.75041616 1.6808149 -0.99748856
0.91599715 1.7250527 -1.0027833
1.1281364 1.7846398 -1.0239125
1.3501685 1.8470598 -1.0415628
0.37374169 1.5749298 -0.96430528
0.53042048 1.6173216 -0.97899848
0.69702387 1.6618769 -0.99234617
0.87152016 1.709354 -1.0032107
1.0648568 1.7622342 -1.0182992
1.2740438 1.8196192 -1.0326879
0.34015137 1.5627338 -0.96519947
0.48199144 1.5993861 -0.97269005
0.65351415 1.6468827 -0.99063647
0.82112169 1.6909968 -1.0010179
0.99961835 1.738296 -1.009891
1.2127602 1.7976006 -1.0290412
0.29468536 1.5458896 -0.95872021
0.4395192 1.5831226 -0.96916032
0.60212362 1.6276971 -0.98351145
0.76477057 1.6704915 -0.99308461
0.94722253 1.7197102 -1.0067191
1.1564382 1.7767433 -1.0252154
0.25910056 1.5331479 -0.95666087
0.4049291 1.5708919 -0.9700588
0.56260979 1.613001 -0.98277277
0.71833444 1.6532604 -0.99071711
0.89489836 1.6989924 -1.0028774
1.0961573 1.7544422 -1.01959
0.22355063 1.5194194 -0.95476019
0.3604624 1.5540825 -0.96357536
0.5181756 1.5955224 -0.97842264
0.67290074 1.635747 -0.98637086
0.85142398 1.6830114 -1.0013262
1.0369121 1.7310307 -1.0131321
0.191962 1.5069759 -0.95367199
0.33382949 1.5434347 -0.96625727
0.4846215 1.582181 -0.97848839
0.63541937 1.6202925 -0.98677003
0.80402476 1.6646001 -0.99813408
0.98654985 1.7115281 -1.0101109
0.15345521 1.4915212 -0.9479931
0.29828137 1.5295477 -0.96336931
0.44115281 1.5655653 -0.97298831
0.58998698 1.6026204 -0.98143673
0.75762683 1.646065 -0.99395072
0.93023276 1.6901947 -1.0033237
0.13274662 1.4832151 -0.95132053
0.2647303 1.5158889 -0.96146041
0.40167874 1.5494065 -0.96944666
0.54951364 1.5864267 -0.97789913
0.712228 1.6275648 -0.98976344
0.88682818 1.6722403 -1.0020899
0.095239379 1.4677954 -0.94563776
0.22130267 1.4976518 -0.95217007
0.37212232 1.5362047 -0.96949613
0.52291584 1.5747923 -0.98073941
0.67870927 1.6132367 -0.98998761
0.84938347 1.6556405 -1.0016603
0.062692255 1.4536955 -0.94076318
0.20062946 1.4883587 -0.95565623
0.3425321 1.5238309 -0.96839976
0.48051804 1.5560793 -0.97456545
0.64223003 1.5974998 -0.98840821
0.79902738 1.6355032 -0.99469018
0.03510217 1.4412328 -0.93867159
0.17203876 1.4760199 -0.95455599
0.30702063 1.5087984 -0.96468323
0.4440068 1.5410118 -0.97085303
0.60479003 1.5804242 -0.98501706
0.76354623 1.6199598 -0.99409384
0.010472522 1.4301789 -0.93838358
0.14248672 1.462342 -0.95164376
0.2774668 1.4952792 -0.96275824
0.41348776 1.5266297 -0.97007793
0.56731433 1.5643351 -0.98146731
0.72118223 1.6004189 -0.98906583
-0.011194091 1.4202163 -0.93792486
0.11489712 1.4498794 -0.94955212
0.24791501 1.4816014 -0.95984608
0.37701473 1.5102582 -0.9645496
0.5259161 1.545657 -0.97528923
0.68770146 1.5847868 -0.9874742
-0.039779097 1.4072425 -0.93287551
0.090303667 1.43768 -0.94843554
0.21839812 1.4669368 -0.95709252
0.35241842 1.4983763 -0.96540755
0.50231802 1.5339686 -0.97713017
0.65818018 1.5705982 -0.9876824
-0.059413258 1.3965217 -0.93355453
0.069636606 1.4277523 -0.94797266
0.19676487 1.4561461 -0.95777965
0.32982251 1.4864053 -0.96526998
0.47183672 1.5182824 -0.9745394
0.62470067 1.5548073 -0.98510361
-0.088959366 1.3822092 -0.92669356
0.040087178 1.4137571 -0.94308621
0.17217474 1.4436294 -0.95468837
0.30130494 1.4717755 -0.96251249
0.44032249 1.5033894 -0.9708066
0.59521735 1.5393147 -0.98349589
-0.10762804 1.3723512 -0.92622268
0.020455863 1.4027189 -0.9417907
0.15253903 1.4330673 -0.9563548
0.27574885 1.458396 -0.96057123
0.41676244 1.4903969 -0.97083187
0.56274027 1.5232414 -0.97893858
-0.13025469 1.360891 -0.92296505
-0.003134955 1.390237 -0.93869567
0.12598802 1.4191767 -0.95145589
0.24919653 1.444664 -0.95665979
0.39120632 1.4770172 -0.96889073
0.52929902 1.5061464 -0.97454417
-0.14592649 1.3512963 -0.92346919
-0.023729147 1.3780185 -0.93657559
0.10143432 1.4055145 -0.94753623
0.22364198 1.4311256 -0.95373124
0.36272544 1.4612421 -0.96530455
0.50573891 1.4931539 -0.97456932
-0.15863681 1.3429518 -0.92478991
-0.035442993 1.3700261 -0.93986666
0.082835905 1.3936831 -0.94738269
0.20208362 1.4178855 -0.95177394
0.3391695 1.4477735 -0.96236795
0.48121884 1.4786637 -0.97179544
-0.18022758 1.3303809 -0.92069954
-0.055071462 1.3586705 -0.93659663
0.069161423 1.3843169 -0.94886601
0.18544763 1.4072692 -0.9524408
0.32356489 1.4365227 -0.96516395
0.46165469 1.4659694 -0.97279167
-0.1879805 1.3236736 -0.92480308
-0.074666344 1.3464869 -0.9344728
0.049531408 1.3731201 -0.94658339
0.17081003 1.3967228 -0.95309943
0.30397001 1.4243391 -0.96303964
0.44013098 1.4517425 -0.97099292
-0.2056087 1.312229 -0.92053771
-0.087338679 1.3368382 -0.93397754
0.028975194 1.3595973 -0.94264752
0.14925295 1.383324 -0.95015502
0.28341094 1.4111338 -0.96107823
0.4215695 1.4387656 -0.97001046
-0.21632026 1.3039542 -0.92185032
-0.10101032 1.3271546 -0.93348646
0.018263504 1.3513225 -0.94395989
0.13657908 1.373834 -0.95064688
0.26681268 1.3992134 -0.95992917
0.3980487 1.4243103 -0.96723276
-0.23494646 1.2923161 -0.9166019
-0.11564484 1.3162909 -0.93217075
0.0016670343 1.3392435 -0.94182378
0.12098038 1.3619485 -0.94949377
0.24525717 1.3856559 -0.95599735
0.38640797 1.4140272 -0.96886641
-0.23870189 1.2857482 -0.92068928
-0.12435614 1.3079271 -0.93248773
-0.012966183 1.328221 -0.93952066
0.10438522 1.3497108 -0.94637024
0.23761107 1.3758297 -0.95958942
0.36388958 1.3992894 -0.96410996
-0.25732654 1.2739514 -0.91445357
-0.13602915 1.2983133 -0.9319886
-0.016686369 1.3206664 -0.94376647
0.094707973 1.3404841 -0.94783729
0.2130982 1.360546 -0.95187938
0.34832731 1.3862584 -0.9621281
-0.26503852 1.2656225 -0.91476679
-0.15165849 1.2869384 -0.92771512
-0.034277998 1.3080764 -0.93867266
0.078149483 1.327101 -0.94388521
0.21041068 1.3521982 -0.95726687
0.34068251 1.3762735 -0.96473283
-0.27471125 1.2559197 -0.91327214
-0.15637538 1.2790316 -0.92999059
-0.040957075 1.2989544 -0.94012749
0.067510903 1.3165352 -0.94354045
0.19185512 1.3385866 -0.95233566
0.32907999 1.3646861 -0.96455061
-0.28438401 1.246217 -0.9117775
-0.1630529 1.2697508 -0.93045819
-0.043677948 1.2914348 -0.94436926
0.05883605 1.307026 -0.94302887
0.18221584 1.3280557 -0.95198679
0.32047364 1.3533622 -0.96534353
-0.29209456 1.2377294 -0.91110349
-0.17372341 1.2598546 -0.92798048
-0.056310762 1.2803231 -0.94107091
0.050196331 1.2965301 -0.94267601
0.1745739 1.3177534 -0.95261699
0.30691022 1.3404011 -0.96335363
-0.29680836 1.2295052 -0.91140431
-0.17840375 1.2508023 -0.92942727
-0.066944957 1.2692814 -0.93776441
0.043555476 1.286104 -0.94231492
0.16989392 1.3087012 -0.95406353
0.30126715 1.3301685 -0.96397561
-0.30252159 1.2212461 -0.91170937
-0.18511488 1.2423496 -0.92874902
-0.065668344 1.2619013 -0.94198972
0.038875259 1.2770517 -0.94376171
0.15929332 1.2968313 -0.95190281
0.29366186 1.3187207 -0.96377724
-0.31119207 1.2112608 -0.90823627
-0.18583417 1.2345823 -0.9310081
-0.071346566 1.2526554 -0.94245338
0.037191674 1.2682629 -0.94618332
0.15464978 1.2866336 -0.95252085
0.28406081 1.3068857 -0.96161234
-0.30895129 1.2049023 -0.91229916
-0.19250873 1.2249842 -0.9295013
-0.076022394 1.2431271 -0.94093829
0.034511626 1.2591215 -0.94663465
0.15696059 1.2783016 -0.95690084
0.28241259 1.2971101 -0.96419269
-0.31366211 1.1963605 -0.91062546
-0.19618513 1.2154907 -0.92798227
-0.079701759 1.233951 -0.94139367
0.024876982 1.2481147 -0.94332403
0.15428078 1.2691604 -0.95735192
0.27677235 1.2865601 -0.96284002
-0.31537786 1.1882409 -0.9109143
-0.19890031 1.2073362 -0.92827493
-0.080419384 1.2260249 -0.94266546
0.025193563 1.2392367 -0.94475031
0.14667989 1.2572365 -0.9541918
0.27016947 1.2748297 -0.96066314
-0.31509629 1.1803498 -0.91218215
-0.19861874 1.199445 -0.92954278
-0.087056093 1.2151226 -0.93934274
0.029468341 1.2319613 -0.9489634
0.14603384 1.2471782 -0.95479339
0.27351651 1.2653872 -0.96421021
-0.31584764 1.1732517 -0.91230804
-0.19833563 1.191395 -0.92982316
-0.089733057 1.2056639 -0.93781942
0.023831185 1.2210938 -0.94563651
0.14239246 1.2366979 -0.95343292
0.27187222 1.2551353 -0.96382868
-0.31556466 1.1652019 -0.91258866
-0.19901541 1.1821649 -0.92927909
-0.088417165 1.196821 -0.93924177
0.022187121 1.210842 -0.9452551
0.14670521 1.2281183 -0.95582998
0.26826596 1.2436683 -0.96262664
-0.31128702 1.157609 -0.91482735
-0.1967351 1.1743436 -0.93053877
-0.081144214 1.1896501 -0.9434427
0.022506787 1.2016466 -0.9447068
0.1480211 1.2192752 -0.9572522
0.2775729 1.2355804 -0.96697778
-0.31200051 1.1492068 -0.9131375
-0.19545268 1.1663285 -0.93081522
-0.08381857 1.1798739 -0.93994492
0.02978104 1.194317 -0.94792032
0.14737813 1.2088995 -0.95587921
0.266978 1.2230756 -0.96086818
-0.30971864 1.1412266 -0.91340989
-0.1951317 1.1569744 -0.92927986
-0.081536487 1.1718937 -0.9402172
0.029137833 1.1839414 -0.94654763
0.15272665 1.1992092 -0.95744377
0.27332476 1.2135789 -0.96341568
-0.30347741 1.1346902 -0.91548187
-0.18789235 1.1506315 -0.93233478
-0.079218194 1.1627681 -0.93966079
0.03441631 1.1762245 -0.9477948
0.15604293 1.1902772 -0.95787054
0.28463009 1.2055608 -0.9677586
-0.30219203 1.1263576 -0.91378379
-0.18457463 1.1415409 -0.93177444
-0.066951536 1.1560891 -0.94581574
0.042726554 1.1677842 -0.95017558
0.16039369 1.1803933 -0.95845175
0.28998038 1.1957117 -0.96833563
-0.2959508 1.1198211 -0.91585571
-0.17533664 1.1352677 -0.93482125
-0.061671514 1.1482136 -0.9460758
0.050037485 1.1593093 -0.95256072
0.1677077 1.1716008 -0.95886213
0.29829192 1.1871128 -0.96972907
-0.28967145 1.1119804 -0.91611171
-0.17401482 1.1257898 -0.93229461
-0.056355055 1.1391926 -0.94550723
0.058349032 1.1507103 -0.95395428
0.17601924 1.1630019 -0.96025556
0.30367866 1.1761183 -0.96947753
-0.28339213 1.1041398 -0.91636771
-0.16573817 1.1181775 -0.93352968
-0.047080398 1.1317739 -0.94772536
0.066625923 1.1430981 -0.95518905
0.18137084 1.1529942 -0.95984542
0.31498551 1.1679415 -0.97283322
-0.27611491 1.0964928 -0.91760701
-0.15945895 1.1103369 -0.9337855
-0.04076593 1.1229465 -0.94813997
0.069981501 1.1327031 -0.95281267
0.18968238 1.1443951 -0.96123892
0.32133797 1.1578097 -0.97143173
-0.26191798 1.0916981 -0.92244917
-0.14422759 1.1045904 -0.93878227
-0.036445931 1.1135732 -0.94560075
0.077295281 1.1239105 -0.95322317
0.20199035 1.1360945 -0.96360332
0.32769066 1.1476781 -0.97003019
-0.25364003 1.0839272 -0.92269707
-0.14090692 1.0951822 -0.93624747
-0.025172889 1.1062243 -0.94781077
0.091565192 1.116825 -0.95640796
0.21429938 1.1276349 -0.96498048
0.34003353 1.1383907 -0.97255313
-0.24835716 1.0757341 -0.9209826
-0.13063152 1.0876397 -0.93747431
-0.010902741 1.0991387 -0.95099568
0.10487247 1.1085591 -0.95876831
0.23160104 1.119826 -0.9692989
0.35633719 1.1303881 -0.97588837
-0.23312426 1.069829 -0.92499226
-0.11336628 1.0809764 -0.94262153
0.0063624941 1.0924753 -0.95614278
0.11817951 1.1002933 -0.96112865
0.23995236 1.1097641 -0.96788919
0.37367707 1.1212749 -0.97839063
-0.22384699 1.0620929 -0.92523599
-0.11007788 1.0722373 -0.93795341
0.019635942 1.0850375 -0.95735723
0.12749499 1.0912529 -0.95955622
0.25725558 1.1017964 -0.97122025
0.3870208 1.1118636 -0.97992229
-0.21456794 1.054198 -0.92449236
-0.090814024 1.0656435 -0.94309235
0.030947203 1.0763844 -0.95775133
0.14576109 1.0844656 -0.96371192
0.26757038 1.092791 -0.96964365
0.40632418 1.1038069 -0.98225784
-0.19534063 1.0487498 -0.9304601
-0.077540338 1.0582057 -0.94430691
0.039264686 1.0671505 -0.95519578
0.15810834 1.0747019 -0.96327329
0.28191495 1.0832556 -0.97018403
0.41870788 1.0928977 -0.98099035
-0.18106776 1.0413468 -0.93167061
-0.0602738 1.0513835 -0.9484669
0.059529636 1.0604328 -0.95934331
0.17241777 1.0661534 -0.96365488
0.30421212 1.0757798 -0.97546911
0.43701193 1.0848061 -0.98333001
-0.16679488 1.0339438 -0.932881
-0.045999497 1.0438217 -0.94868994
0.075834848 1.0522716 -0.96169138
0.19368179 1.0594707 -0.96779823
0.3205204 1.067301 -0.97584254
0.45735002 1.0757976 -0.98582
-0.14556718 1.0284065 -0.93785316
-0.026732553 1.0369105 -0.95185435
0.097100653 1.0454302 -0.96484751
0.21098785 1.0511855 -0.96915478
0.34481773 1.0597361 -0.98013204
0.47968644 1.0668586 -0.98830193
-0.13628398 1.0200354 -0.93414772
-0.013421123 1.0281684 -0.95125288
0.11240916 1.0369165 -0.96522504
0.22533551 1.0413327 -0.96772057
0.36116272 1.0501118 -0.97967672
0.49902806 1.0574977 -0.98882151
-0.11402337 1.013705 -0.94026184
0.0088075595 1.0225072 -0.95523363
0.13766961 1.0305319 -0.97033948
0.24959771 1.0347544 -0.97185153
0.38249984 1.0411381 -0.98216295
0.52336335 1.0486284 -0.99129522
-0.10174341 1.0055971 -0.93753135
0.025115618 1.0140284 -0.95560724
0.15397921 1.0218943 -0.96972561
0.27289727 1.026996 -0.97515798
0.41279069 1.0340999 -0.98840231
0.54769892 1.0397593 -0.99376869
-0.08147715 0.99872082 -0.94069165
0.05137537 1.0076787 -0.96071738
0.18123673 1.0157382 -0.97581893
0.30318809 1.0199578 -0.98139751
0.43409577 1.0257953 -0.98875499
0.57403308 1.03096 -0.99623406
-0.060211588 0.99187934 -0.94384784
0.069645613 1.0004152 -0.96191126
0.19958033 1.0061837 -0.97535539
0.32549119 1.0118469 -0.98273349
0.45843261 1.0167675 -0.99024135
0.60632539 1.0236739 -1.0004905
-0.037981603 0.98605943 -0.94684136
0.086956069 0.99165368 -0.96030611
0.22584137 0.99967533 -0.97947818
0.3517887 1.0041931 -0.98602772
0.49072361 1.0096402 -0.99548531
0.63865304 1.0154012 -1.0049058
-0.017676059 0.97772008 -0.94719845
0.11521314 0.98553252 -0.96639526
0.24914379 0.99159932 -0.98081011
0.37712488 0.99519998 -0.98750997
0.51406401 1.0002599 -0.99500108
0.66502392 1.0054563 -1.0065426
0.0085485596 0.97235715 -0.95214987
0.13951331 0.97765017 -0.96871054
0.27344576 0.98355812 -0.98213792
0.40142682 0.98715883 -0.98883766
0.54139775 0.99149537 -0.99746239
0.70630634 0.99896032 -1.0137236
0.030816525 0.96523297 -0.95332736
0.16377991 0.97059572 -0.96987963
0.30174187 0.97597396 -0.98542392
0.4287267 0.97922218 -0.99015296
0.57369161 0.98405057 -1.0007316
0.73667467 0.98915488 -1.0153439
0.059074901 0.95895308 -0.9584294
0.19403714 0.96438551 -0.97497314
0.33499727 0.9698683 -0.99050486
0.45606175 0.97029889 -0.9916271
0.6100167 0.97591734 -1.0051303
0.78198838 0.98197043 -1.0236546
0.084374629 0.95110554 -0.96074051
0.22532882 0.95722347 -0.98022145
0.35833767 0.96048802 -0.99002093
0.48735759 0.96266043 -0.99391311
0.64134771 0.96729219 -1.0075752
0.80437034 0.97093338 -1.019384
0.11363541 0.94454294 -0.96386361
0.24863432 0.94882989 -0.97957867
0.39359194 0.9544521 -0.99509382
0.52564359 0.95590121 -1.0001196
0.68366635 0.95968562 -1.0139238
0.84768826 0.96336168 -1.0257283
0.13989931 0.93771696 -0.96601182
0.28089172 0.94253063 -0.98367673
0.42092827 0.94537002 -0.99558067
0.55897343 0.94734579 -1.0025561
0.72298968 0.95165694 -1.01831
0.8950386 0.95494264 -1.0322148
0.1701594 0.93118924 -0.96913087
0.31518289 0.93531436 -0.98792505
0.45522097 0.93799496 -0.99884164
0.59530014 0.93905371 -1.0059675
0.76830626 0.94415492 -1.024646
0.93136817 0.94633299 -1.0336514
0.19646153 0.92305893 -0.96946311
0.34647873 0.92767596 -0.99021131
0.49350831 0.93107688 -1.0040607
0.63858271 0.93246871 -1.0121531
0.79964161 0.93505341 -1.0241288
0.9757247 0.93733305 -1.0371882
0.23770596 0.91786736 -0.97846061
0.38376698 0.92072308 -0.9954347
0.52780235 0.92354304 -1.0063344
0.67491072 0.92401785 -1.0145773
0.84399688 0.92621225 -1.028653
1.0220802 0.92840284 -1.040717
0.26697114 0.91082835 -0.97862166
0.41806099 0.91318923 -0.99770844
0.56213325 0.91486371 -1.0077796
0.72522151 0.91700774 -1.0228673
0.89530981 0.91891938 -1.0349642
1.0694002 0.92049414 -1.0440826
0.30425891 0.90387541 -0.98384517
0.44932455 0.90621984 -0.99786121
0.59842765 0.90724069 -1.0090576
0.75752258 0.90876889 -1.0211999
0.94063103 0.91094095 -1.0383383
1.1227485 0.91212541 -1.0495569
0.34554157 0.89737952 -0.99102646
0.48964587 0.89838481 -1.0032308
0.64970106 0.90141094 -1.0181721
0.80783623 0.90144122 -1.0275153
0.984954 0.90276891 -1.0407292
1.1740991 0.90352821 -1.054052
0.37880269 0.89063871 -0.99215835
0.52790248 0.89197707 -1.0053293
0.69401968 0.89371532 -1.0235251
0.85615253 0.89388496 -1.0328517
1.0313109 0.89367986 -1.0432705
1.2274853 0.89385521 -1.0577103
0.41306311 0.88393271 -0.99328607
0.56519467 0.88454777 -1.0075905
0.74130303 0.88695216 -1.0277196
0.9134587 0.88711882 -1.0411127
1.0846605 0.8851524 -1.0477575
1.2998134 0.88710159 -1.0690298
0.45335063 0.87692559 -0.99750972
0.61746913 0.8785941 -1.0157137
0.78162986 0.87848186 -1.0291398
0.95278925 0.87829608 -1.0405623
1.1440035 0.87715167 -1.0541942
1.3581966 0.87760288 -1.0726672
0.49963161 0.87044513 -1.003683
0.65875906 0.87130415 -1.0179584
0.83593941 0.87145239 -1.0364259
1.0041414 0.8695401 -1.0440702
1.1983526 0.86865902 -1.0586768
1.4165812 0.86794537 -1.0753175
0.53489447 0.86345643 -1.0028319
0.70507807 0.86351943 -1.0223156
0.88525808 0.86361337 -1.0397835
1.0594537 0.86222786 -1.0493774
1.2616949 0.86063886 -1.0641097
1.4849536 0.85927159 -1.0818756
0.57818013 0.85655385 -1.0070431
0.75336051 0.85679108 -1.0265059
0.93857121 0.85623139 -1.045099
1.1187983 0.85406828 -1.054827
1.3280323 0.85304087 -1.0715045
1.5673103 0.85187972 -1.093312
0.62646258 0.8498255 -1.0112334
0.80467498 0.84933943 -1.03183
0.9898901 0.84830332 -1.0474609
1.173115 0.84624469 -1.0571762
1.393373 0.84509039 -1.076929
1.6416796 0.84341502 -1.0998452
0.6767413 0.84348446 -1.0173901
0.86394513 0.84362972 -1.0399239
1.0511953 0.84151781 -1.0547179
1.2414497 0.83887523 -1.0655503
1.4707373 0.83704793 -1.0854244
1.7150871 0.83361119 -1.1045665
0.73005289 0.83626127 -1.0236931
0.91626155 0.83589524 -1.0432689
1.1125023 0.83457345 -1.0609876
1.3118196 0.83042997 -1.0730872
1.5511333 0.82828206 -1.0950533
1.8064748 0.82538754 -1.115137
0.79231966 0.83081496 -1.0327619
0.97257435 0.82845902 -1.0475847
1.1628609 0.82514727 -1.0605502
1.377162 0.8223207 -1.0775244
1.6204745 0.82015336 -1.0984863
1.8828468 0.8165161 -1.1186997
0.84260255 0.8239975 -1.0359565
1.0278891 0.82082909 -1.0509173
1.2321613 0.81864059 -1.0677739
1.4594852 0.81575674 -1.0878149
1.7048696 0.81136811 -1.1071112
1.9722755 0.8067596 -1.1264752
0.90191197 0.81682462 -1.0412471
1.0872002 0.81349736 -1.0552206
1.3064923 0.81148016 -1.076123
1.5338556 0.8071332 -1.0933607
1.7902316 0.80328673 -1.1135986
2.0736935 0.79773891 -1.1361755
0.95519304 0.81011164 -1.0444292
1.1574999 0.80702549 -1.0624403
1.3778294 0.80373883 -1.0815226
1.6092267 0.79838574 -1.0979148
1.8806229 0.79471058 -1.1221986
2.1680865 0.78882569 -1.1417971
1.0204973 0.8033067 -1.0506823
1.221808 0.79986805 -1.0667228
1.4541606 0.7964893 -1.0888758
1.7005795 0.79114872 -1.1083266
1.9650254 0.78513122 -1.1258868
2.2695076 0.77948731 -1.1495225
1.0887982 0.79676497 -1.0579103
1.3001347 0.79300576 -1.0760425
1.5355238 0.78842723 -1.0963672
1.7899376 0.78336549 -1.1157848
2.0694046 0.77736044 -1.1364033
2.3899457 0.77045959 -1.1612774
1.1561012 0.7900297 -1.064155
1.3754679 0.78556257 -1.0824126
1.6238449 0.78191358 -1.1056454
1.8782979 0.77538866 -1.1222595
2.1737876 0.76927221 -1.1449451
2.5113859 0.76130807 -1.1720407
1.2193778 0.78350639 -1.0663083
1.4517655 0.77914089 -1.0886197
1.7181969 0.77462232 -1.1150572
1.9746869 0.76686269 -1.1298472
2.2891955 0.76089817 -1.1555743
2.6368244 0.75213706 -1.1817999
1.2957073 0.77641571 -1.074649
1.5370913 0.77220505 -1.0959357
1.8085548 0.76687402 -1.122511
2.0810671 0.75900292 -1.1393678
2.4146299 0.75220364 -1.1682956
2.7672577 0.74329907 -1.1925255
1.3760009 0.77029228 -1.0818268
1.6294432 0.76500291 -1.1063433
1.8989153 0.75880802 -1.1279902
2.1864154 0.75177735 -1.1467593
2.5250478 0.74286127 -1.1740091
2.9107175 0.73408628 -1.2043433
1.4562961 0.76401001 -1.0880175
1.7157711 0.75778419 -1.1116803
1.9992652 0.75156701 -1.1363896
2.3068187 0.74373639 -1.1583551
2.6494532 0.73448324 -1.1826262
3.0792232 0.72472435 -1.2222987
1.5456164 0.75753117 -1.0972912
1.8100899 0.75132078 -1.1199459
2.1006174 0.74404317 -1.1428103
2.4242272 0.73527324 -1.1679887
2.7969079 0.7257275 -1.1964021
3.2427039 0.71538067 -1.2351794
1.6429303 0.75148994 -1.107519
1.9164332 0.74460649 -1.1302952
2.218987 0.73691916 -1.1542556
2.553627 0.72738713 -1.1785597
2.9523551 0.71740931 -1.2111318
3.4041874 0.70580846 -1.2470808
1.7342523 0.74476314 -1.11481
2.0087593 0.73743802 -1.1346198
2.3383579 0.72967124 -1.1647096
2.6750016 0.7195735 -1.1850559
3.1108029 0.70903689 -1.2248615
3.5806971 0.69577229 -1.2590787
1.8355303 0.73968911 -1.123875
2.1220984 0.73096764 -1.1449397
2.4647238 0.72266722 -1.1751341
2.8244195 0.71187413 -1.1986643
3.2832749 0.70032442 -1.2396792
3.7531765 0.68626565 -1.2689596
1.9348472 0.73324108 -1.1311324
2.2334428 0.7239511 -1.152306
2.5950894 0.7156437 -1.1845547
2.9948542 0.70455515 -1.2162935
3.4557509 0.69129437 -1.2525221
3.9737537 0.67591453 -1.288162
2.0381613 0.72693235 -1.1383731
2.3657658 0.71861929 -1.1655087
2.7154679 0.70747757 -1.1890801
3.152271 0.69665802 -1.2269067
3.639219 0.68264753 -1.2653192
4.2073221 0.66617525 -1.3082975
2.1454754 0.72060418 -1.1446098
2.4931316 0.71165001 -1.175929
2.8758748 0.70063794 -1.2056047
3.3137197 0.68807232 -1.238649
3.8367112 0.67381954 -1.2801914
4.4669032 0.65699059 -1.3324329
2.2777972 0.71543127 -1.1588
2.6314902 0.70506412 -1.1863036
3.0542676 0.69474328 -1.2240291
3.502146 0.68106294 -1.2542285
4.0652122 0.66587931 -1.30003
4.7124691 0.64703405 -1.348569
2.4051275 0.7094487 -1.1690614
2.76582 0.69900781 -1.1945612
3.214648 0.68793726 -1.2344706
3.707629 0.6729902 -1.2720292
4.3047414 0.65733576 -1.3199816
5.0151267 0.63670546 -1.3749763
2.5384543 0.70367521 -1.1792979
2.9271934 0.69287199 -1.2089481
3.3980772 0.68075359 -1.2500707
3.9110839 0.6651991 -1.2857302
4.5553002 0.64802986 -1.3390586
5.3057647 0.62599224 -1.3953505
2.6847701 0.69867235 -1.1914548
3.0975609 0.68720865 -1.2242846
3.5824752 0.67411488 -1.2625458
4.157568 0.65852141 -1.309443
4.8298769 0.6388914 -1.3601693
5.6694813 0.61578238 -1.4279041
2.835084 0.69380885 -1.203595
3.276922 0.6818589 -1.2395836
3.7858922 0.66762805 -1.2780623
4.4010625 0.65078616 -1.327244
5.1394596 0.63077998 -1.3862295
6.0662093 0.60605335 -1.4624535
2.9904311 0.68797415 -1.2148858
3.4552901 0.67583889 -1.2509375
4.017355 0.66093785 -1.2987167
4.666574 0.64330727 -1.3480742
5.4620724 0.62181723 -1.4104195
6.4629807 0.59438449 -1.4912376
3.1687582 0.68357617 -1.2300302
3.6466472 0.67058963 -1.2642117
4.2567797 0.6551953 -1.3172039
4.9691248 0.63609749 -1.3749919
5.8467364 0.61380219 -1.4456884
6.9127822 0.58354229 -1.5260425
3.3580759 0.67987925 -1.2471031
3.8640509 0.66506708 -1.2826318
4.51123 0.64914763 -1.3367748
5.268651 0.6288166 -1.395839
6.2264152 0.60434204 -1.4730791
7.4336672 0.57249802 -1.5690855
3.5424037 0.67521381 -1.2592602
4.1024394 0.66059405 -1.3029389
4.7826681 0.6438511 -1.3572621
5.6212029 0.62268001 -1.4246815
6.6551247 0.59556907 -1.5065074
7.9865694 0.5614233 -1.6111664
3.7437174 0.67145836 -1.273321
4.3438301 0.65574896 -1.3202714
5.0981755 0.63808084 -1.3839664
6.0068007 0.61619651 -1.4566662
7.1498885 0.58724779 -1.5470482
8.6706505 0.54956168 -1.6697693
3.9800708 0.66806114 -1.2944648
4.6242218 0.6523881 -1.3445115
5.4196486 0.63302976 -1.4075247
6.4154201 0.60936886 -1.4877263
7.6797028 0.57817274 -1.5877606
9.4137955 0.53711343 -1.7305772
4.2244201 0.66478372 -1.314588
4.9066186 0.64846152 -1.3647939
5.810204 0.6281836 -1.4422913
6.8831 0.60259014 -1.5249408
8.3055811 0.57024342 -1.6395689
10.286055 0.52514642 -1.8036485
4.4937863 0.66170847 -1.33674
5.2280531 0.64471471 -1.3901678
6.1866751 0.62437999 -1.4677538
7.4007788 0.59720236 -1.5660548
9.0426207 0.56102264 -1.7028868
11.291501 0.51119125 -1.8853346
4.7630887 0.65997118 -1.3546253
5.5814648 0.64255953 -1.4183702
6.6292677 0.61953115 -1.5036082
7.9795189 0.59177434 -1.6123277
9.8366604 0.55280119 -1.7661258
12.447085 0.49730331 -1.9783672
5.0784554 0.65814751 -1.3806937
5.9669218 0.64002252 -1.4497187
7.1338477 0.61680925 -1.5452869
8.6603546 0.58671451 -1.66983
10.781867 0.54433078 -1.8448155
13.859968 0.48236957 -2.0962484
5.3947582 0.65769655 -1.4024907
6.3893886 0.63810575 -1.4830462
7.6714425 0.61425036 -1.5869867
9.4242725 0.5813942 -1.7325578
11.855194 0.53551221 -1.9308358
15.619261 0.46551102 -2.2453251
5.7781453 0.65722197 -1.434517
6.8598557 0.63751024 -1.5202817
8.3051043 0.61267847 -1.6387945
10.305245 0.57779258 -1.8053062
13.133686 0.52781624 -2.0352027
17.646793 0.44789812 -2.4060502
6.172493 0.65779954 -1.4643635
7.3833523 0.6375823 -1.5625501
9.0398302 0.61226767 -1.7006898
11.314303 0.5749886 -1.8862138
14.840693 0.51834315 -2.1850395
20.290031 0.42741472 -2.6207943
6.6188369 0.65999669 -1.4990886
7.9628468 0.6389367 -1.6067183
9.869628 0.61233222 -1.7697351
12.490517 0.57233393 -1.9815177
16.74478 0.5107674 -2.3409312
23.593988 0.40384808 -2.8845911
7.1262383 0.66247118 -1.5409471
8.6573915 0.64257544 -1.664865
10.807455 0.61415303 -1.8447306
13.998008 0.57165492 -2.1104057
18.928066 0.5036481 -2.5072801
27.134893 0.38370615 -3.1299446
7.6826086 0.66697079 -1.5845754
9.4149628 0.6469124 -1.7260278
11.895384 0.61718661 -1.9319009
15.779684 0.57300586 -2.2606313
22.135471 0.49509791 -2.7786474
32.271587 0.35592383 -3.5044229
8.331975 0.67432594 -1.6380067
10.306608 0.65305024 -1.8002609
13.216419 0.6237815 -2.0401037
17.805483 0.5760771 -2.4180212
24.893929 0.49353084 -2.9469531
31.451181 0.37146357 -3.1776173
9.0653868 0.68276006 -1.6984748
11.349286 0.6622504 -1.8853601
14.955802 0.63318413 -2.1930225
20.478783 0.58312035 -2.6334369
30.590626 0.48717415 -3.4190612
31.394627 0.3861621 -2.9351044
9.8987942 0.69397581 -1.7667419
12.506955 0.67427802 -1.975233
16.846128 0.64670241 -2.3444827
24.196951 0.59525865 -2.9457593
30.907476 0.50260317 -3.2245748
31.316904 0.40522045 -2.6928725
10.859217 0.70808643 -1.843841
14.026835 0.69146025 -2.1053123
19.270761 0.6660834 -2.5403335
31.382353 0.52117854 -3.0399377
31.617537 0.42524949 -2.4864802
11.979661 0.72604936 -1.9347302
15.840785 0.71448791 -2.2571564
21.637033 0.69007397 -2.6958544
30.471727 0.63810855 -3.2811146
30.788895 0.54655772 -2.7493536
34.307545 0.44096917 -2.4624887
13.308126 0.74918562 -2.0433168
17.862705 0.74243796 -2.4125571
25.604507 0.72778726 -3.0175819
31.045479 0.66413814 -3.1146648
30.730976 0.57267529 -2.51513
33.736862 0.47322685 -2.1718419
15.013727 0.77965438 -2.189754
20.54187 0.78225052 -2.6287787
30.11791 0.77790159 -3.3461983
30.983244 0.60236055 -2.3101521
33.480396 0.50820535 -1.9105833
16.906174 0.81826073 -2.3392007
23.776108 0.83349866 -2.8753552
30.50421 0.81132895 -3.1600556
30.470901 0.72353476 -2.5967994
31.015085 0.63749939 -2.080683
32.722301 0.54842871 -1.6163596
19.225628 0.86763066 -2.5179138
29.437592 0.92089427 -3.3647187
30.713226 0.84725106 -2.9529989
30.664864 0.76043034 -2.3865254
33.812027 0.68400401 -2.0417566
33.247303 0.58994818 -1.4058166
22.087074 0.93170393 -2.7375786
30.107901 0.96382362 -3.2189829
30.479771 0.88347512 -2.70069
31.118877 0.80249578 -2.1950376
33.099964 0.72480965 -1.7535833
33.746117 0.63536906 -1.1875173
22.168419 0.96143627 -2.5769169
30.517828 1.008906 -3.0370748
30.523417 0.92539519 -2.4792621
33.882122 0.86901289 -2.1619551
33.381435 0.77505344 -1.5250791
21.661348 0.98454428 -2.3476005
30.272238 1.0488172 -2.7851679
30.870085 0.97446001 -2.2794027
34.135406 0.92356569 -1.9286648
33.390568 0.82839519 -1.2815043
30.190147 1.1741151 -3.1031694
30.460709 1.09951 -2.5736775
31.325613 1.0302486 -2.0846944
33.844269 0.97677326 -1.6623967
34.025909 0.88991809 -1.0638469
33.979424 0.80158216 -0.45609227
29.851349 1.2172493 -2.8414946
30.701101 1.1541125 -2.3687222
33.905735 1.1229242 -2.0278897
34.194305 1.0404319 -1.4328433
32.069962 0.93159616 -0.75348932
34.097237 0.8662616 -0.21489958
30.061686 1.2730979 -2.6383214
30.667236 1.2081813 -2.1391499
32.031456 1.0722642 -1.0944009
33.87244 1.0141617 -0.5726105
34.023888 0.93202013 0.027754055
31.151001 1.3543628 -2.5123358
34.05986 1.3381379 -2.1534746
34.016273 1.252547 -1.5432565
34.273689 1.1734295 -0.94458318
33.822006 1.0825361 -0.32855532
34.07642 1.0034723 0.26911816
30.247864 1.3925272 -2.2121608
33.797482 1.3992283 -1.8920559
34.126873 1.3236976 -1.3060756
34.147167 1.2427852 -0.69823474
19.243799 0.92237252 0.1051769
33.911777 1.0764024 0.51001924
19.510944 1.1654691 -1.2011688
33.892948 1.4739622 -1.6552889
34.375275 1.40341 -1.0727782
33.991585 1.3137388 -0.45563874
19.113647 0.96485829 0.2469241
34.201122 1.1577327 0.74858266
33.941113 1.6290195 -2.0223672
34.055302 1.5537975 -1.4228611
34.920483 1.4952171 -0.84910101
19.213264 1.0605575 0.033284139
19.089394 1.0121825 0.38828531
34.04422 1.2384826 0.98668015
33.816383 1.7037302 -1.7711078
34.105518 1.6345377 -1.1830363
34.590603 1.5700414 -0.59347701
18.926037 1.1023477 0.17615756
34.66193 1.415562 0.62739456
42.055641 1.4896871 1.4086409
34.027416 1.7936423 -1.5401659
34.197498 1.7231374 -0.94504476
33.972763 1.6386191 -0.33743301
18.917664 1.1536658 0.31510037
38.733501 1.6082388 0.92100173
41.005939 1.5756121 1.6630353
34.581181 1.8995093 -1.3263911
34.024536 1.8045102 -0.70175904
18.712305 1.2427198 0.10690552
18.979246 1.2077401 0.45236111
18.98628 1.1650397 0.80099785
38.795742 1.6325024 1.8668131
35.54142 2.0286863 -1.123626
33.730453 1.8871105 -0.45506367
19.31151 1.3176367 0.23966092
19.023695 1.2653271 0.58919907
19.055681 1.224166 0.94007361
16.446117 1.1082765 1.1783769
34.701538 2.0922718 -0.84780955
33.744255 1.9801817 -0.22434248
18.937187 1.3609774 0.37885725
19.032131 1.3226464 0.72604573
16.652721 1.2023022 0.99875194
16.484831 1.1601439 1.2991084
20.534355 1.5714735 -0.22359835
18.789719 1.4545029 0.16826074
18.981564 1.4210143 0.51305145
18.996521 1.3808823 0.86006457
16.550442 1.252184 1.1132885
16.59033 1.2188019 1.423876
18.700218 1.5495731 -0.039131429
15.898749 1.3850406 0.3141712
18.963871 1.4818509 0.64746332
16.784845 1.3527546 0.93062627
16.540001 1.3079131 1.2306608
16.720781 1.2793171 1.5489072
18.712538 1.6109455 0.092285171
15.995346 1.4420153 0.42855197
18.848269 1.5390806 0.77637058
16.563599 1.3999537 1.041863
16.642397 1.3697441 1.3539183
16.055933 1.3118341 1.6219516
18.583948 1.6670876 0.22508733
19.020321 1.6518074 0.56739521
16.65205 1.4970607 0.85480082
16.542059 1.4585773 1.1576915
16.911486 1.4422003 1.4857383
16.031456 1.3691733 1.732513
18.677074 1.7358634 0.35352904
19.128334 1.7235886 0.69933826
16.39982 1.5438155 0.96195883
16.740217 1.5288447 1.2811577
16.559298 1.4873772 1.5806308
15.826144 1.4202989 1.8291655
16.102926 1.6517839 0.47130674
16.248556 1.6289328 0.77128392
16.460087 1.6092422 1.0787657
16.681591 1.5894562 1.3953341
16.431808 1.5438957 1.6861435
15.637816 1.4726523 1.9219398
16.177216 1.7175069 0.5830766
16.201027 1.6874453 0.88206726
16.517361 1.6747231 1.1945728
16.324474 1.6328036 1.4879128
15.867999 1.5774482 1.7561703
15.84783 1.5468066 2.0490532
16.158564 1.7798308 0.6954456
16.25226 1.7541806 0.99504668
16.381805 1.7327777 1.3013574
16.016289 1.6791623 1.5788808
15.839377 1.6395476 1.8614273
16.327547 1.8557692 0.80872566
16.365282 1.8280088 1.1090798
16.02672 1.7755259 1.3918114
15.998557 1.7444462 1.685648
15.839636 1.7054582 1.9682695
15.353288 1.6487651 2.2130578
16.20499 1.9141183 0.91655207
16.265636 1.8892908 1.2163329
16.342247 1.8653718 1.5202886
16.435816 1.8423959 1.8284236
15.647162 1.7622539 2.0577137
