# .PCD v0.7 - Point Cloud Data file format
VERSION 0.7
FIELDS x y z intensity normal_x normal_y normal_z curvature
SIZE 4 4 4 4 4 4 4 4
TYPE F F F F F F F F
COUNT 1 1 1 1 1 1 1 1
WIDTH 966
HEIGHT 1
VIEWPOINT 0 0 0 1 0 0 0
POINTS 966
DATA ascii
6.6956496 3.9972601 -1.5294 9 0 0 2 0
7.42065 4.4022603 -1.5544 12 0 0 2 0
8.1516495 4.80726 -1.5563999 23 0 0 2 0
8.1436501 4.7782602 -1.4064 30 0 0 2 0
8.1716499 4.7722602 -1.2653999 43 0 0 2 0
8.5046501 4.94626 -1.1653999 11 0 0 7.4759273e-42 0
6.6456499 3.9232602 -1.5303999 9 0 0 7.4773286e-42 0
7.3476501 4.3102603 -1.5533999 12 0 0 7.4787299e-42 0
8.1386499 4.7462602 -1.5694 23 0 0 7.4801312e-42 0
8.1446495 4.7252603 -1.4233999 30 0 0 7.4815325e-42 0
8.1666498 4.71526 -1.2814 47 0 0 7.4829338e-42 0
8.4376497 4.8512602 -1.1744 13 0 0 7.4843351e-42 0
6.6066499 3.8562601 -1.5323999 10 0 0 7.4857364e-42 0
7.27565 4.2192602 -1.5513999 11 0 0 7.4871377e-42 0
8.1076498 4.6742601 -1.5783999 21 0 0 7.488539e-42 0
8.1406498 4.6682601 -1.4383999 33 0 0 7.4899403e-42 0
8.1536503 4.6532602 -1.2953999 44 0 0 7.4913416e-42 0
8.3396502 4.7402601 -1.1774 14 0 0 7.4927429e-42 0
6.5596499 3.78426 -1.5333999 9 0 0 7.4941442e-42 0
7.2146497 4.1352601 -1.5513999 11 0 0 7.4955455e-42 0
8.0746498 4.6002603 -1.5863999 18 0 0 7.4969468e-42 0
8.1306496 4.6072602 -1.4513999 30 0 0 7.4983481e-42 0
8.15065 4.5962601 -1.3094 42 0 0 7.4997494e-42 0
8.2866497 4.6522603 -1.1863999 21 0 0 7.5011507e-42 0
6.5176497 3.71526 -1.5344 8 0 0 7.502552e-42 0
7.1616497 4.0552602 -1.5513999 11 0 0 7.5039533e-42 0
8.0056505 4.5062599 -1.5874 15 0 0 7.5053546e-42 0
8.1216497 4.5462599 -1.4633999 28 0 0 7.5067559e-42 0
8.1416502 4.5352602 -1.3224 42 0 0 7.5081572e-42 0
8.2056494 4.5502601 -1.1894 25 0 0 7.5095585e-42 0
6.4726501 3.6442602 -1.5333999 8 0 0 7.5109598e-42 0
7.1086497 3.97526 -1.5513999 11 0 0 7.5123611e-42 0
7.9296498 4.4072599 -1.5843999 14 0 0 7.5137624e-42 0
8.1016502 4.47826 -1.4734 28 0 0 7.5151637e-42 0
8.13165 4.47226 -1.3354 41 0 0 7.516565e-42 0
8.1886501 4.4842601 -1.2013999 18 0 0 7.5179663e-42 0
6.4236498 3.57026 -1.5303999 8 0 0 7.5193676e-42 0
7.0556498 3.89626 -1.5494 11 0 0 7.5207689e-42 0
7.86165 4.31426 -1.5824 14 0 0 7.5221702e-42 0
8.1046495 4.4232602 -1.4863999 29 0 0 7.5235715e-42 0
8.1276503 4.4122601 -1.3474 43 0 0 2 0
8.1416502 4.4012599 -1.2074 33 0 0 2 0
6.3896499 3.5062602 -1.5314 8 0 0 2 0
7.0156498 3.8232601 -1.5503999 11 0 0 2 0
7.8036499 4.2272601 -1.5824 14 0 0 2 0
8.1046495 4.3642602 -1.4984 28 0 0 2 0
8.1226501 4.3522601 -1.3584 40 0 0 2 0
8.1346502 4.3392601 -1.2184 40 0 0 7.5347818e-42 0
6.3586497 3.44226 -1.5314 8 0 0 7.5361831e-42 0
6.9806499 3.7542601 -1.5513999 10 0 0 7.5375844e-42 0
7.7516499 4.1422601 -1.5813999 13 0 0 7.5389857e-42 0
8.09865 4.3032603 -1.5073999 29 0 0 7.540387e-42 0
8.1056499 4.2852602 -1.3664 44 0 0 7.5417883e-42 0
8.1166496 4.2712603 -1.2273999 41 0 0 7.5431896e-42 0
6.3316498 3.3812602 -1.5323999 8 0 0 2 0
6.9386497 3.6802602 -1.5503999 11 0 0 2 0
7.7186499 4.0682602 -1.5843999 15 0 0 2 0
8.0816498 4.23526 -1.5143999 27 0 0 2 0
8.09865 4.22226 -1.3764 45 0 0 2 0
8.1106501 4.2082601 -1.2373999 43 0 0 2 0
6.32165 3.3292601 -1.5353999 10 0 0 2 0
6.9416499 3.6312602 -1.5583999 11 0 0 7.5544e-42 0
7.6866498 3.99526 -1.5863999 15 0 0 7.5558013e-42 0
8.0866499 4.1782603 -1.5244 28 0 0 7.5572026e-42 0
8.0956497 4.1602602 -1.3853999 45 0 0 7.5586039e-42 0
8.1046495 4.1452603 -1.2473999 39 0 0 7.5600052e-42 0
6.2976499 3.2692602 -1.5353999 8 0 0 7.5614065e-42 0
6.9236498 3.5692601 -1.5613999 11 0 0 7.5628078e-42 0
7.6496496 3.9182601 -1.5863999 14 0 0 7.5642091e-42 0
8.0826502 4.1152601 -1.5333999 29 0 0 7.5656104e-42 0
8.0816498 4.0932603 -1.3923999 43 0 0 7.5670117e-42 0
8.0976496 4.0812602 -1.2553999 41 0 0 7.568413e-42 0
6.2786498 3.21226 -1.5364 8 0 0 7.5698143e-42 0
6.8756499 3.4922602 -1.5563999 11 0 0 7.5712156e-42 0
7.6016498 3.8362601 -1.5833999 13 0 0 7.5726169e-42 0
8.0736494 4.05126 -1.5383999 28 0 0 7.5740182e-42 0
8.0786495 4.03126 -1.3994 45 0 0 7.5754195e-42 0
8.0906496 4.0172601 -1.2634 42 0 0 7.5768208e-42 0
6.2686501 3.15926 -1.5383999 8 0 0 7.5782221e-42 0
6.8646498 3.4352601 -1.5594 12 0 0 7.5796234e-42 0
7.5796499 3.7672601 -1.5854 15 0 0 7.5810247e-42 0
8.0686502 3.9862602 -1.5444 31 0 0 7.582426e-42 0
8.0866499 3.9742601 -1.4083999 35 0 0 7.5838273e-42 0
8.1116495 3.9662602 -1.2733999 36 0 0 7.5852286e-42 0
6.25665 3.1052601 -1.5394 9 0 0 7.5866299e-42 0
6.8446498 3.3722601 -1.5594 11 0 0 7.5880312e-42 0
7.5646496 3.70226 -1.5883999 14 0 0 7.5894325e-42 0
8.05865 3.9202602 -1.5494 30 0 0 7.5908338e-42 0
8.1286497 3.93226 -1.4224 37 0 0 7.5922351e-42 0
8.2116499 3.9532602 -1.2964 38 0 0 7.5936364e-42 0
6.2326498 3.0452602 -1.5364 9 0 0 7.5950377e-42 0
6.83565 3.3162601 -1.5613999 12 0 0 7.596439e-42 0
7.5446496 3.6352601 -1.5883999 14 0 0 7.5978403e-42 0
8.0566502 3.8582602 -1.5544 30 0 0 7.5992416e-42 0
8.1336498 3.87326 -1.4294 35 0 0 7.6006429e-42 0
8.3186502 3.9412601 -1.3194 37 0 0 7.6020442e-42 0
6.2376499 2.9992602 -1.5403999 10 0 0 2 0
6.83565 3.2632601 -1.5644 12 0 0 2 0
7.5426497 3.5752602 -1.5913999 14 0 0 2 0
8.0436497 3.7902601 -1.5563999 29 0 0 2 0
8.15065 3.8192601 -1.4363999 36 0 0 2 0
8.41465 3.92226 -1.3404 36 0 0 2 0
6.2406497 2.95226 -1.5433999 10 0 0 2 0
6.8316498 3.2082601 -1.5663999 12 0 0 7.6132546e-42 0
7.5316496 3.5122602 -1.5924 14 0 0 7.6146559e-42 0
8.0296497 3.7212601 -1.5574 31 0 0 7.6160572e-42 0
8.1406498 3.7502601 -1.4394 38 0 0 7.6174585e-42 0
8.3626499 3.8322601 -1.3363999 45 0 0 7.6188598e-42 0
6.2446499 2.9042602 -1.5464 10 0 0 7.620261e-42 0
6.8386497 3.1582601 -1.5704 11 0 0 7.6216623e-42 0
7.53265 3.4542601 -1.5954 14 0 0 7.6230636e-42 0
8.0336504 3.6602602 -1.5613999 31 0 0 7.6244649e-42 0
8.1356497 3.6852601 -1.4413999 41 0 0 7.6258662e-42 0
8.2436495 3.7142601 -1.3224 39 0 0 7.6272675e-42 0
6.2526498 2.8592601 -1.5494 10 0 0 7.6286688e-42 0
6.8456497 3.1072602 -1.5733999 11 0 0 7.6300701e-42 0
7.5356498 3.39626 -1.5984 15 0 0 7.6314714e-42 0
8.0236502 3.59326 -1.5613999 32 0 0 7.6328727e-42 0
8.1336498 3.6212602 -1.4444 39 0 0 7.634274e-42 0
8.5736494 3.7962601 -1.3773999 47 0 0 7.6356753e-42 0
6.2736497 2.82026 -1.5544 9 0 0 7.6370766e-42 0
6.86165 3.0602601 -1.5774 12 0 0 7.6384779e-42 0
7.5416498 3.34026 -1.6004 14 0 0 7.6398792e-42 0
8.00665 3.52426 -1.5603999 32 0 0 7.6412805e-42 0
8.09865 3.5432601 -1.4403999 42 0 0 7.6426818e-42 0
8.1776495 3.5582602 -1.3174 42 0 0 7.6440831e-42 0
6.2916498 2.7782602 -1.5583999 9 0 0 7.6454844e-42 0
6.8726497 3.0122602 -1.5793999 12 0 0 7.6468857e-42 0
7.5536499 3.2872601 -1.6034 14 0 0 7.648287e-42 0
8.0156498 3.46526 -1.5624 33 0 0 7.6496883e-42 0
8.1556501 3.5042601 -1.4513999 42 0 0 7.6510896e-42 0
8.2576494 3.5292602 -1.3313999 51 0 0 7.6524909e-42 0
6.3046498 2.7342601 -1.5603999 10 0 0 7.6538922e-42 0
6.8996496 2.9692602 -1.5854 13 0 0 7.6552935e-42 0
7.5616498 3.2312601 -1.6043999 14 0 0 7.6566948e-42 0
8.0036497 3.3982601 -1.5603999 31 0 0 7.6580961e-42 0
8.12465 3.4282601 -1.4463999 40 0 0 7.6594974e-42 0
8.1786499 3.43226 -1.3194 37 0 0 7.6608987e-42 0
6.3176498 2.6902602 -1.5624 10 0 0 7.6623e-42 0
6.9046497 2.9172602 -1.5843999 13 0 0 7.6637013e-42 0
7.5806499 3.1802602 -1.6073999 15 0 0 7.6651026e-42 0
7.9986496 3.3332601 -1.5583999 31 0 0 7.6665039e-42 0
8.1546497 3.3772602 -1.4513999 44 0 0 7.6679052e-42 0
8.2956495 3.41626 -1.3374 43 0 0 7.6693065e-42 0
6.3466496 2.6522601 -1.5674 10 0 0 7.6707078e-42 0
6.9256496 2.8722601 -1.5874 13 0 0 7.6721091e-42 0
7.6096497 3.1322601 -1.6113999 15 0 0 7.6735104e-42 0
7.9896498 3.2672601 -1.5553999 31 0 0 7.6749117e-42 0
8.1616497 3.31726 -1.4504 44 0 0 7.676313e-42 0
8.8306494 3.56726 -1.4214 52 0 0 7.6777143e-42 0
6.3736496 2.61326 -1.5713999 10 0 0 7.6791156e-42 0
6.9646497 2.8332601 -1.5943999 13 0 0 7.6805169e-42 0
7.6546497 3.0912602 -1.6184 16 0 0 7.6819182e-42 0
7.97965 3.2002602 -1.5503999 31 0 0 7.6833195e-42 0
8.1856499 3.2622602 -1.4524 44 0 0 7.6847208e-42 0
8.71665 3.4532602 -1.4014 54 0 0 7.6861221e-42 0
6.4036498 2.5742602 -1.5743999 11 0 0 7.6875234e-42 0
6.9896498 2.7882602 -1.5963999 13 0 0 7.6889247e-42 0
7.6876497 3.0432601 -1.6223999 16 0 0 7.690326e-42 0
7.9886498 3.1412601 -1.5494 33 0 0 7.6917273e-42 0
8.1956501 3.20226 -1.4524 46 0 0 7.6931286e-42 0
8.9706497 3.4832602 -1.4394 49 0 0 7.6945299e-42 0
6.4366498 2.5372601 -1.5793999 11 0 0 7.6959312e-42 0
7.0216498 2.74526 -1.5993999 13 0 0 7.6973325e-42 0
7.7336497 3.0002601 -1.6273999 16 0 0 7.6987338e-42 0
8.00665 3.0852602 -1.5494 33 0 0 7.7001351e-42 0
8.1516495 3.1212602 -1.4403999 42 0 0 2 0
8.9016495 3.3872602 -1.4244 60 0 0 2 0
6.4746499 2.50126 -1.5833999 12 0 0 2 0
7.06565 2.7072601 -1.6043999 13 0 0 2 0
7.7776499 2.9572601 -1.6314 16 0 0 2 0
8.0116501 3.02426 -1.5453999 28 0 0 2 0
8.1736498 3.0652602 -1.4403999 44 0 0 2 0
9.0016499 3.3552601 -1.4353999 53 0 0 7.7113454e-42 0
6.5106497 2.4632602 -1.5874 12 0 0 7.7127467e-42 0
7.1166496 2.6702602 -1.6104 13 0 0 7.714148e-42 0
7.84165 2.9202602 -1.6393999 16 0 0 7.7155493e-42 0
8.0366497 2.9712601 -1.5444 29 0 0 7.7169506e-42 0
8.2056494 3.0142601 -1.4403999 44 0 0 7.7183519e-42 0
8.9856501 3.2802601 -1.4283999 48 0 0 7.7197532e-42 0
6.54565 2.4252601 -1.5893999 12 0 0 7.7211545e-42 0
7.1716499 2.6352601 -1.6164 13 0 0 7.7225558e-42 0
7.9026499 2.8812602 -1.6453999 18 0 0 7.7239571e-42 0
8.05865 2.9172602 -1.5424 28 0 0 7.7253584e-42 0
8.2066498 2.9512601 -1.4344 43 0 0 7.7267597e-42 0
8.4976501 3.0362601 -1.3454 150 0 0 7.728161e-42 0
6.6036496 2.3942602 -1.5974 13 0 0 7.7295623e-42 0
7.2246499 2.5982602 -1.6214 13 0 0 7.7309636e-42 0
7.9656496 2.8412602 -1.6503999 21 0 0 7.7323649e-42 0
8.0736494 2.8592601 -1.5383999 29 0 0 7.7337662e-42 0
8.2486496 2.9022601 -1.4344 45 0 0 7.7351675e-42 0
8.5436497 2.9862602 -1.3454 83 0 0 7.7365688e-42 0
6.63165 2.3522601 -1.5963999 13 0 0 7.7379701e-42 0
7.2836499 2.5622602 -1.6273999 13 0 0 7.7393714e-42 0
8.0296497 2.8012602 -1.6564 23 0 0 7.7407727e-42 0
8.1086502 2.8092601 -1.5373999 31 0 0 7.742174e-42 0
8.2766495 2.8482602 -1.4324 44 0 0 7.7435753e-42 0
8.6486502 2.9562602 -1.3543999 63 0 0 7.7449766e-42 0
6.7016497 2.3242602 -1.6043999 13 0 0 7.7463779e-42 0
7.34865 2.5272601 -1.6334 13 0 0 7.7477792e-42 0
8.09865 2.7632601 -1.6614 28 0 0 7.7491805e-42 0
8.1526499 2.76126 -1.5364 32 0 0 7.7505818e-42 0
8.24965 2.7752602 -1.4194 44 0 0 7.7519831e-42 0
8.7356501 2.91926 -1.3593999 68 0 0 7.7533844e-42 0
6.75665 2.2902601 -1.6093999 13 0 0 7.7547857e-42 0
7.4286499 2.4972601 -1.6414 14 0 0 7.756187e-42 0
8.1436501 2.71526 -1.6603999 30 0 0 7.7575883e-42 0
8.1986494 2.7142601 -1.5353999 37 0 0 7.7589896e-42 0
8.3436499 2.7432601 -1.4253999 43 0 0 7.7603909e-42 0
8.7346497 2.8522601 -1.3493999 81 0 0 7.7617922e-42 0
6.82265 2.26126 -1.6154 13 0 0 7.7631935e-42 0
7.5026498 2.4642601 -1.6473999 14 0 0 7.7645948e-42 0
8.1806498 2.6652601 -1.6573999 31 0 0 7.7659961e-42 0
8.25665 2.6702602 -1.5364 39 0 0 7.7673974e-42 0
8.4396496 2.7102602 -1.4313999 46 0 0 7.7687987e-42 0
8.63165 2.7532601 -1.3233999 150 0 0 7.7702e-42 0
6.88165 2.2272601 -1.6193999 13 0 0 7.7716013e-42 0
7.57865 2.4312601 -1.6533999 14 0 0 7.7730026e-42 0
8.2086496 2.6122601 -1.6514 38 0 0 7.7744039e-42 0
8.2936497 2.6182601 -1.5314 41 0 0 7.7758052e-42 0
8.5196495 2.6712601 -1.4333999 49 0 0 7.7772065e-42 0
8.8296499 2.7492602 -1.3424 141 0 0 7.7786078e-42 0
6.9636497 2.2002602 -1.6273999 13 0 0 7.7800091e-42 0
7.6746497 2.4032602 -1.6623999 14 0 0 7.7814104e-42 0
8.2416496 2.5592601 -1.6464 33 0 0 7.7828117e-42 0
8.3356495 2.5682602 -1.5273999 45 0 0 7.784213e-42 0
8.5246496 2.6072602 -1.4224 50 0 0 7.7856143e-42 0
8.8546495 2.68926 -1.3333999 117 0 0 7.7870156e-42 0
7.0496497 2.1732602 -1.6364 13 0 0 7.7884169e-42 0
7.7736497 2.3742602 -1.6714 15 0 0 7.7898182e-42 0
8.2716494 2.5052602 -1.6393999 30 0 0 7.7912195e-42 0
8.40765 2.5272601 -1.5273999 44 0 0 7.7926208e-42 0
8.6066494 2.5682602 -1.4224 52 0 0 7.7940221e-42 0
9.02565 2.6732602 -1.3454 87 0 0 7.7954234e-42 0
7.13765 2.1452601 -1.6444 13 0 0 7.7968247e-42 0
7.8646498 2.34326 -1.6774 15 0 0 7.798226e-42 0
8.3106499 2.45526 -1.6334 32 0 0 7.7996273e-42 0
8.4656496 2.4812601 -1.5233999 43 0 0 7.8010286e-42 0
8.7546501 2.54726 -1.4324 129 0 0 7.8024298e-42 0
9.50665 2.74526 -1.4014 72 0 0 7.8038311e-42 0
7.2386498 2.1212602 -1.6533999 13 0 0 7.8052324e-42 0
7.9756498 2.3162601 -1.6863999 15 0 0 7.8066337e-42 0
8.3366499 2.4002602 -1.6234 21 0 0 7.808035e-42 0
8.5466499 2.4412601 -1.5233999 44 0 0 7.8094363e-42 0
8.6596498 2.45526 -1.4033999 50 0 0 7.8108376e-42 0
9.6306496 2.7102602 -1.4033999 54 0 0 7.8122389e-42 0
7.32265 2.09026 -1.6583999 14 0 0 7.8136402e-42 0
8.0856495 2.2872601 -1.6944 16 0 0 7.8150415e-42 0
8.3886499 2.35326 -1.6184 33 0 0 7.8164428e-42 0
8.5836496 2.3882601 -1.5143999 48 0 0 7.8178441e-42 0
8.7376499 2.4122601 -1.3994 55 0 0 7.8192454e-42 0
9.7246494 2.6642601 -1.3994 51 0 0 7.8206467e-42 0
7.43365 2.0662601 -1.6683999 14 0 0 7.822048e-42 0
8.2216501 2.2642601 -1.7063999 18 0 0 7.8234493e-42 0
8.42665 2.3012602 -1.6093999 24 0 0 7.8248506e-42 0
8.6606503 2.3452601 -1.5114 47 0 0 7.8262519e-42 0
8.8476496 2.3772602 -1.4003999 57 0 0 7.8276532e-42 0
10.02765 2.6732602 -1.4244 53 0 0 7.8290545e-42 0
7.55265 2.0432601 -1.6794 14 0 0 7.8304558e-42 0
8.3516502 2.23826 -1.7163999 21 0 0 7.8318571e-42 0
8.5016499 2.2592602 -1.6063999 25 0 0 7.8332584e-42 0
8.78965 2.3152602 -1.5164 47 0 0 7.8346597e-42 0
9.0416498 2.36326 -1.4133999 52 0 0 7.836061e-42 0
9.8606501 2.55726 -1.3814 23 0 0 7.8374623e-42 0
7.67765 2.0202601 -1.6903999 14 0 0 7.8388636e-42 0
8.4606495 2.20526 -1.7204 24 0 0 7.8402649e-42 0
8.5936499 2.2192602 -1.6054 37 0 0 7.8416662e-42 0
8.8576498 2.2692602 -1.5093999 50 0 0 7.8430675e-42 0
8.9506502 2.27426 -1.3803999 15 0 0 7.8444688e-42 0
11.54965 2.90926 -1.5913999 57 0 0 7.8458701e-42 0
7.8106499 1.99726 -1.7013999 13 0 0 7.8472714e-42 0
8.53965 2.1622601 -1.7163999 28 0 0 7.8486727e-42 0
8.6826496 2.17926 -1.6023999 44 0 0 7.850074e-42 0
8.9316502 2.2232602 -1.5023999 50 0 0 7.8514753e-42 0
9.0476494 2.2332602 -1.3753999 48 0 0 7.8528766e-42 0
11.62165 2.84326 -1.5754 63 0 0 7.8542779e-42 0
7.9506497 1.97526 -1.7133999 13 0 0 7.8556792e-42 0
8.6136494 2.1192601 -1.7113999 34 0 0 7.8570805e-42 0
8.7686501 2.1372602 -1.5984 44 0 0 3 0
9.07265 2.19226 -1.5053999 54 0 0 3 0
9.1346502 2.18926 -1.3684 53 0 0 3 0
12.96465 3.0782602 -1.7254 56 0 0 3 0
8.0866499 1.95026 -1.7224 12 0 0 3 0
8.6656494 2.0692601 -1.7004 27 0 0 3 0
8.8726501 2.0992601 -1.5954 46 0 0 3 0
9.1136494 2.1372602 -1.4904 51 0 0 7.8682909e-42 0
9.2256498 2.1452601 -1.3604 16 0 0 7.8696922e-42 0
9.2486496 2.1342602 -1.2163999 0 0 0 7.8710935e-42 0
8.22365 1.92326 -1.7304 12 0 0 7.8724948e-42 0
8.7306499 2.02226 -1.6913999 25 0 0 7.8738961e-42 0
8.9686499 2.0582602 -1.5904 47 0 0 7.8752974e-42 0
9.2246494 2.09726 -1.4854 55 0 0 7.8766987e-42 0
9.4566498 2.1322601 -1.3704 52 0 0 7.8781e-42 0
13.19765 2.9462602 -1.6933999 63 0 0 7.8795013e-42 0
8.4356499 1.9122601 -1.7523999 14 0 0 7.8809026e-42 0
8.8246498 1.9812599 -1.6874 35 0 0 7.8823039e-42 0
9.1076498 2.0252602 -1.5913999 51 0 0 7.8837052e-42 0
9.3786497 2.0662601 -1.4863999 51 0 0 7.8851065e-42 0
9.5836496 2.09326 -1.3643999 18 0 0 7.8865078e-42 0
13.20965 2.8552601 -1.6614 64 0 0 7.8879091e-42 0
8.6206503 1.89326 -1.7673999 16 0 0 7.8893104e-42 0
8.8956499 1.93426 -1.6763999 20 0 0 7.8907117e-42 0
9.2816496 1.99826 -1.5963999 48 0 0 7.892113e-42 0
9.4326496 2.01126 -1.4693999 52 0 0 7.8935142e-42 0
9.9086494 2.0942602 -1.3834 60 0 0 7.8949155e-42 0
11.15465 2.3362601 -1.3784 0 0 0 0 0
8.8036499 1.87026 -1.7794 19 0 0 7.8977181e-42 0
9.0466499 1.9022599 -1.6794 23 0 0 7.8991194e-42 0
9.3626499 1.94926 -1.5843999 48 0 0 7.9005207e-42 0
9.4686499 1.9532599 -1.4493999 51 0 0 7.901922e-42 0
11.39465 2.3262601 -1.5563999 60 0 0 7.9033233e-42 0
12.14865 2.4592602 -1.4654 38 0 0 7.9047246e-42 0
9.0136499 1.8512599 -1.7953999 31 0 0 7.9061259e-42 0
9.2056494 1.87126 -1.6824 36 0 0 7.9075272e-42 0
9.5226498 1.9172601 -1.5843999 49 0 0 7.9089285e-42 0
9.6326494 1.92026 -1.4463999 51 0 0 7.9103298e-42 0
9.7556496 1.92726 -1.3083999 2 0 0 7.9117311e-42 0
13.09065 2.5592601 -1.5403999 19 0 0 7.9131324e-42 0
9.18365 1.82226 -1.8013999 28 0 0 7.9145337e-42 0
9.4106503 1.84926 -1.6913999 44 0 0 7.915935e-42 0
9.7376499 1.89326 -1.5913999 53 0 0 7.9173363e-42 0
9.8596497 1.89826 -1.4513999 58 0 0 7.9187376e-42 0
12.44265 2.37026 -1.6273999 77 0 0 7.9201389e-42 0
12.57465 2.37326 -1.4444 0 0 0 7.9215402e-42 0
9.42665 1.8052599 -1.8204 29 0 0 7.9229415e-42 0
9.61765 1.8232599 -1.6983999 47 0 0 7.9243428e-42 0
10.03565 1.88226 -1.6084 57 0 0 7.9257441e-42 0
10.00165 1.85826 -1.4424 49 0 0 7.9271454e-42 0
12.481649 2.2922602 -1.5943999 67 0 0 7.9285467e-42 0
12.34565 2.2472601 -1.3814 2 0 0 7.929948e-42 0
9.6796494 1.78826 -1.8383999 39 0 0 7.9313493e-42 0
9.8726501 1.80426 -1.7133999 53 0 0 7.9327506e-42 0
10.31065 1.86426 -1.6204 55 0 0 7.9341519e-42 0
10.65065 1.90626 -1.5014 57 0 0 7.9355532e-42 0
11.61065 2.0562601 -1.4493999 18 0 0 0 0
14.14465 2.47826 -1.5364 8 0 0 7.9383558e-42 0
9.8756495 1.75726 -1.8434 26 0 0 7.9397571e-42 0
10.13665 1.78426 -1.7254 49 0 0 7.9411584e-42 0
10.59365 1.84426 -1.6303999 58 0 0 7.9425597e-42 0
11.09565 1.91126 -1.5283999 64 0 0 7.943961e-42 0
11.32665 1.93226 -1.3784 3 0 0 0 0
14.03065 2.3672602 -1.4793999 40 0 0 7.9467636e-42 0
10.106649 1.7312599 -1.8534 34 0 0 7.9481649e-42 0
10.35565 1.7542599 -1.7284 50 0 0 7.9495662e-42 0
10.712649 1.79426 -1.6134 53 0 0 7.9509675e-42 0
11.20665 1.85726 -1.5064 74 0 0 7.9523688e-42 0
14.29565 2.3412602 -1.6874 43 0 0 7.9537701e-42 0
13.99465 2.2702601 -1.4303999 22 0 0 7.9551714e-42 0
10.363649 1.70626 -1.8643999 27 0 0 7.9565727e-42 0
10.74065 1.74826 -1.7564 46 0 0 7.957974e-42 0
11.03565 1.77626 -1.6243999 53 0 0 7.9593753e-42 0
11.27765 1.79526 -1.4784 8 0 0 0 0
14.50165 2.2802601 -1.6623999 39 0 0 7.9621779e-42 0
13.94565 2.17226 -1.3784 12 0 0 7.9635792e-42 0
10.62865 1.6802599 -1.8743999 22 0 0 7.9649805e-42 0
11.01665 1.72126 -1.7623999 48 0 0 7.9663818e-42 0
11.55165 1.78426 -1.6594 53 0 0 7.9677831e-42 0
14.90565 2.2722602 -1.8953999 58 0 0 7.9691844e-42 0
14.75865 2.2272601 -1.6414 47 0 0 7.9705857e-42 0
14.35465 2.1442602 -1.3693999 0 0 0 7.971987e-42 0
10.87465 1.64926 -1.8793999 19 0 0 7.9733883e-42 0
11.29265 1.69226 -1.7664 51 0 0 7.9747896e-42 0
11.941649 1.76826 -1.6733999 58 0 0 7.9761909e-42 0
14.98065 2.1902602 -1.8534 56 0 0 7.9775922e-42 0
14.74065 2.1322601 -1.5883999 4 0 0 7.9789935e-42 0
19.03265 2.7192602 -1.7423999 24 0 0 7.9803948e-42 0
11.14365 1.61926 -1.8853999 19 0 0 7.9817961e-42 0
11.613649 1.66626 -1.7744 52 0 0 7.9831974e-42 0
13.915649 1.94726 -1.6724 50 0 0 7.9845986e-42 0
13.72165 1.89926 -1.4303999 67 0 0 7.9859999e-42 0
13.67065 1.87226 -1.2083999 40 0 0 1 0
11.429649 1.58726 -1.8903999 21 0 0 7.9888025e-42 0
11.86965 1.62726 -1.7694 56 0 0 7.9902038e-42 0
14.14865 1.91426 -1.8753999 74 0 0 7.9916051e-42 0
14.05665 1.8792599 -1.6373999 64 0 0 7.9930064e-42 0
14.11165 1.86526 -1.4174 8 0 0 7.9944077e-42 0
13.679649 1.78826 -1.1583999 0 0 0 3 0
11.76965 1.5602599 -1.9014 44 0 0 3 0
12.34765 1.61526 -1.7924 62 0 0 3 0
14.20965 1.83426 -1.8293999 51 0 0 3 0
14.974649 1.90926 -1.6863999 22 0 0 3 0
15.81265 1.99226 -1.5264 3 0 0 3 0
20.478651 2.5452602 -1.6453999 24 0 0 3 0
12.12465 1.5322599 -1.9114 37 0 0 8.0056181e-42 0
13.11165 1.6342599 -1.8513999 51 0 0 8.0070194e-42 0
18.159651 2.2012601 -1.9693999 5 0 0 8.0084207e-42 0
15.77265 1.89126 -1.4613999 41 0 0 8.009822e-42 0
20.37965 2.4102602 -1.5583999 58 0 0 8.0112233e-42 0
12.50665 1.5042599 -1.9214 47 0 0 8.0126246e-42 0
13.48265 1.59826 -1.8504 76 0 0 8.0140259e-42 0
15.74965 1.77226 -1.1464 3 0 0 1 0
12.87465 1.46926 -1.9253999 54 0 0 8.0168285e-42 0
14.764649 1.66026 -1.9643999 72 0 0 8.0182298e-42 0
14.84765 1.64726 -1.7354 60 0 0 8.0196311e-42 0
17.790651 1.94426 -1.7883999 150 0 0 8.0210324e-42 0
17.863651 1.9252599 -1.5084 149 0 0 8.0224337e-42 0
15.70665 1.6752599 -1.0804 3 0 0 8.023835e-42 0
13.47265 1.45626 -1.9583999 57 0 0 8.0252363e-42 0
14.97165 1.59326 -1.9294 62 0 0 8.0266376e-42 0
16.02965 1.68126 -1.8053999 12 0 0 0 0
17.922651 1.8282599 -1.4394 116 0 0 8.0294402e-42 0
17.908651 1.80326 -1.1544 46 0 0 8.0308415e-42 0
13.88365 1.41826 -1.9593999 55 0 0 8.0322428e-42 0
15.45865 1.55426 -1.9274 59 0 0 8.0336441e-42 0
16.09165 1.59426 -1.7443999 15 0 0 0 0
16.071651 1.57026 -1.4834 50 0 0 0 0
21.40765 2.0562601 -1.6243999 67 0 0 8.037848e-42 0
18.04565 1.71426 -1.0863999 3 0 0 8.0392493e-42 0
14.40665 1.38726 -1.9704 59 0 0 8.0406506e-42 0
16.90765 1.6012599 -2.0334001 54 0 0 8.0420519e-42 0
16.200651 1.51326 -1.6874 12 0 0 0 0
15.90965 1.46426 -1.4014 5 0 0 0 0
22.887651 2.0692601 -1.6384 55 0 0 8.0462558e-42 0
14.97665 1.35726 -1.9834 53 0 0 8.0476571e-42 0
17.846651 1.5882601 -2.0683999 68 0 0 8.0490584e-42 0
19.25865 1.68626 -1.9183999 56 0 0 8.0504597e-42 0
19.30365 1.66526 -1.6113999 36 0 0 8.051861e-42 0
21.846651 1.85426 -1.4693999 58 0 0 8.0532623e-42 0
15.68165 1.33126 -2.0053999 58 0 0 8.0546636e-42 0
19.36265 1.58626 -1.8413999 41 0 0 8.0560649e-42 0
19.988651 1.6112601 -1.5774 63 0 0 8.0574662e-42 0
20.432652 1.62226 -1.2844 51 0 0 1 0
22.68165 1.77126 -1.0594 20 0 0 8.0602688e-42 0
16.72665 1.32426 -2.0623999 57 0 0 8.0616701e-42 0
17.67865 1.37626 -1.8903999 50 0 0 8.0630714e-42 0
19.458651 1.48726 -1.7634 61 0 0 8.0644727e-42 0
20.085651 1.51026 -1.4943999 61 0 0 8.065874e-42 0
20.498652 1.51626 -1.1954 62 0 0 1 0
20.985651 1.5272599 -0.88740003 11 0 0 8.0686766e-42 0
17.92765 1.32026 -2.1264 68 0 0 8.0700779e-42 0
19.73365 1.4022599 -1.6974 14 0 0 8.0714792e-42 0
22.36965 1.55926 -1.5594 25 0 0 8.0728805e-42 0
21.68165 1.48726 -1.1633999 25 0 0 8.0742818e-42 0
22.373652 1.50826 -0.84140003 17 0 0 8.075683e-42 0
17.65065 1.20626 -2.0134001 34 0 0 8.0770843e-42 0
17.63265 1.18226 -1.7234 19 0 0 8.0784856e-42 0
19.67465 1.29326 -1.6013999 14 0 0 8.0798869e-42 0
22.267651 1.4352599 -1.4483999 56 0 0 8.0812882e-42 0
22.25865 1.40926 -1.0883999 3 0 0 8.0826895e-42 0
22.558651 1.4022599 -0.74040002 18 0 0 8.0840908e-42 0
17.64365 1.1112601 -1.9283999 17 0 0 8.0854921e-42 0
17.668652 1.09126 -1.6434 9 0 0 1 0
19.52565 1.18126 -1.4964 50 0 0 8.0882947e-42 0
22.503651 1.33226 -1.3563999 41 0 0 8.089696e-42 0
22.083651 1.28326 -0.97540003 10 0 0 8.0910973e-42 0
22.68465 1.29326 -0.63639998 13 0 0 8.0924986e-42 0
17.562651 1.0142601 -1.8354 35 0 0 1 0
20.17865 1.13826 -1.7753999 60 0 0 8.0953012e-42 0
19.84865 1.09726 -1.4244 35 0 0 8.0967025e-42 0
22.572651 1.22026 -1.2503999 39 0 0 8.0981038e-42 0
22.137651 1.17326 -0.86940002 12 0 0 8.0995051e-42 0
22.67865 1.17726 -0.5244 5 0 0 8.1009064e-42 0
20.599651 1.07926 -2.0483999 17 0 0 8.1023077e-42 0
21.385651 1.09526 -1.7764 38 0 0 8.103709e-42 0
19.991652 1.0042601 -1.3374 6 0 0 1 0
22.64365 1.10926 -1.1423999 28 0 0 8.1065116e-42 0
22.696651 1.0882601 -0.7784 12 0 0 8.1079129e-42 0
22.787651 1.06926 -0.41339999 6 0 0 8.1093142e-42 0
21.338652 1.0092601 -2.0153999 35 0 0 8.1107155e-42 0
21.339651 0.98725998 -1.6674 50 0 0 8.1121168e-42 0
22.064651 0.99625999 -1.3643999 6 0 0 3 0
22.356651 0.98626 -1.0184 1 0 0 3 0
22.641651 0.97526002 -0.66339999 6 0 0 3 0
22.45265 0.94525999 -0.29539999 4 0 0 3 0
21.201651 0.89925998 -1.8973999 34 0 0 3 0
21.50865 0.89025998 -1.5733999 30 0 0 3 0
22.095652 0.89025998 -1.2553999 5 0 0 3 0
35.790649 1.39226 -1.4344 71 0 0 8.1233272e-42 0
22.55265 0.86325997 -0.5474 2 0 0 8.1247285e-42 0
20.773651 0.77626002 -0.16940001 26 0 0 1 0
21.23765 0.79825997 -1.7933999 59 0 0 8.1275311e-42 0
21.555651 0.78726 -1.4674 15 0 0 1 0
22.02565 0.78226 -1.1393999 1 0 0 8.1303337e-42 0
22.93165 0.79126 -0.8114 0 0 0 8.131735e-42 0
22.509651 0.75525999 -0.43040001 0 0 0 1 0
20.804651 0.68026 -0.062400002 1 0 0 8.1345376e-42 0
21.30265 0.69826001 -1.6903999 26 0 0 8.1359389e-42 0
35.543648 1.1162601 -2.2214 91 0 0 8.1373402e-42 0
21.984652 0.67725998 -1.0233999 0 0 0 1 0
35.639648 1.0502599 -1.0603999 79 0 0 8.1401428e-42 0
35.695648 1.01926 -0.47940001 74 0 0 8.1415441e-42 0
21.217651 0.59526002 0.047599997 24 0 0 8.1429454e-42 0
21.33465 0.59925997 -1.5813999 11 0 0 8.1443467e-42 0
35.687649 0.95425999 -2.0434 87 0 0 8.145748e-42 0
35.735649 0.92126 -1.4604 86 0 0 3 0
35.773647 0.89125997 -0.87639999 85 0 0 3 0
35.813648 0.85926002 -0.2924 87 0 0 3 0
20.919651 0.49226001 0.1586 59 0 0 3 0
21.398651 0.50326002 -1.4743999 28 0 0 3 0
36.10965 0.80026001 -1.8764 19 0 0 3 0
36.238647 0.77126002 -1.2894 26 0 0 3 0
36.010651 0.73426002 -0.68940002 46 0 0 8.1569584e-42 0
20.87565 0.41725999 -0.0704 24 0 0 1 0
21.062651 0.40226001 0.27359998 23 0 0 1 0
21.49765 0.40825999 -1.3664 2 0 0 1 0
37.279648 0.65925997 -1.7373999 30 0 0 8.1625636e-42 0
37.368649 0.62826002 -1.1273999 24 0 0 8.1639649e-42 0
35.766647 0.57226002 -0.49239999 78 0 0 8.1653662e-42 0
21.00165 0.32725999 0.043599997 47 0 0 8.1667675e-42 0
35.85865 0.51326001 0.6846 84 0 0 8.1681687e-42 0
35.891647 0.50626004 -2.0674 2 0 0 8.16957e-42 0
38.48365 0.50926 -1.5824 28 0 0 8.1709713e-42 0
36.114651 0.44926 -0.89139998 79 0 0 8.1723726e-42 0
21.166651 0.25525999 -0.18540001 0 0 0 8.1737739e-42 0
21.096651 0.23726 0.16159999 34 0 0 1 0
35.856647 0.35925999 0.88459998 81 0 0 8.1765765e-42 0
35.829647 0.34926 -1.8664 60 0 0 8.1779778e-42 0
36.507648 0.32626 -1.3003999 70 0 0 8.1793791e-42 0
36.49865 0.29725999 -0.69740003 60 0 0 8.1807804e-42 0
21.291651 0.16626 -0.067400001 12 0 0 8.1821817e-42 0
37.112648 0.24426 0.51560003 1 0 0 8.183583e-42 0
40.179649 0.23126 1.2236 31 0 0 8.1849843e-42 0
35.867649 0.19625999 -1.6683999 65 0 0 8.1863856e-42 0
36.49865 0.17026 -1.0943999 39 0 0 8.1877869e-42 0
36.057648 0.14226 -0.48640001 70 0 0 8.1891882e-42 0
36.597649 0.11626 0.1116 49 0 0 8.1905895e-42 0
36.715649 0.089259997 0.71960002 2 0 0 8.1919908e-42 0
40.76965 0.067259997 1.4766001 93 0 0 8.1933921e-42 0
36.26965 0.04826 -1.4843999 52 0 0 8.1947934e-42 0
36.99765 0.023259999 -0.90240002 42 0 0 3 0
36.179649 -0.0027400006 -0.28440002 48 0 0 3 0
36.604649 -0.030740002 0.3206 47 0 0 3 0
36.99165 -0.057739999 0.93760002 2 0 0 3 0
42.922649 -0.10074 1.8056 33 0 0 3 0
36.147648 -0.098740004 -1.2733999 54 0 0 8.2032012e-42 0
36.195648 -0.12374 -0.67440003 51 0 0 8.2046025e-42 0
36.267651 -0.14874001 -0.075399995 58 0 0 8.2060038e-42 0
36.217648 -0.17374 0.5266 49 0 0 8.2074051e-42 0
44.35265 -0.24874002 1.3896 27 0 0 8.2088064e-42 0
44.399651 -0.27873999 2.1316001 34 0 0 3 0
35.772648 -0.26374 -0.4594 62 0 0 3 0
36.493649 -0.29374 0.13759999 55 0 0 3 0
36.15065 -0.31374002 0.73659998 46 0 0 3 0
54.25565 -0.51774001 2.0266001 60 0 0 3 0
54.19265 -0.55173999 2.9296 81 0 0 8.2172142e-42 0
34.077648 -0.35973999 -0.80839998 15 0 0 8.2186155e-42 0
36.042648 -0.40474001 -0.2534 67 0 0 8.2200168e-42 0
36.04665 -0.42574 0.34560001 66 0 0 8.2214181e-42 0
36.10165 -0.44874001 0.94959998 6 0 0 1 0
53.572647 -0.70973998 2.3176 6 0 0 8.2242207e-42 0
53.822647 -0.74574 3.2316 100 0 0 8.225622e-42 0
35.925648 -0.51274002 -0.6444 63 0 0 8.2270233e-42 0
36.318649 -0.54174 -0.043400001 50 0 0 8.2284246e-42 0
36.264648 -0.56073999 0.5596 63 0 0 8.2298259e-42 0
54.200649 -0.88173997 1.7576001 66 0 0 8.2312272e-42 0
52.864651 -0.88973999 2.6006 46 0 0 8.2326285e-42 0
18.204651 -0.30074 1.1816001 0 0 0 1 0
33.73465 -0.60373998 -0.4084 2 0 0 8.2354311e-42 0
36.349648 -0.67273998 0.16859999 50 0 0 8.2368324e-42 0
36.494648 -0.69573998 0.78060001 28 0 0 1 0
53.17865 -1.05274 2.0426002 50 0 0 8.239635e-42 0
52.883648 -1.0747401 2.9196 55 0 0 8.2410363e-42 0
18.283651 -0.36474001 1.2966001 4 0 0 8.2424376e-42 0
36.362648 -0.78174001 -0.2234 47 0 0 8.2438389e-42 0
36.544647 -0.80474001 0.38659999 53 0 0 8.2452402e-42 0
53.800648 -1.22374 1.4866 55 0 0 8.2466415e-42 0
52.73365 -1.22474 2.3426001 70 0 0 8.2480428e-42 0
53.085648 -1.26174 3.2576001 78 0 0 8.2494441e-42 0
18.392651 -0.43074 1.4196 0 0 0 1 0
36.266647 -0.90674001 -0.0044 46 0 0 8.2522467e-42 0
37.194649 -0.94774002 0.62059999 9 0 0 8.253648e-42 0
54.73465 -1.43374 1.8496001 30 0 0 8.2550493e-42 0
52.635651 -1.40474 2.6686001 81 0 0 8.2564506e-42 0
53.297649 -1.44774 3.6066 97 0 0 8.2578519e-42 0
19.974651 -0.53674001 1.6716001 1 0 0 8.2592531e-42 0
37.399651 -1.06274 0.2256 2 0 0 8.2606544e-42 0
53.193649 -1.5467401 1.2286 46 0 0 8.2620557e-42 0
53.489651 -1.57874 2.1386001 24 0 0 8.263457e-42 0
52.46365 -1.57174 2.9866002 83 0 0 8.2648583e-42 0
53.883648 -1.63974 3.9846001 77 0 0 8.2662596e-42 0
19.89365 -0.59873998 1.7906001 14 0 0 8.2676609e-42 0
39.74865 -1.26274 0.48659998 1 0 0 8.2690622e-42 0
53.245647 -1.72174 1.5606 45 0 0 8.2704635e-42 0
52.749649 -1.72774 2.4396 55 0 0 8.2718648e-42 0
53.305649 -1.76674 3.3696001 72 0 0 8.2732661e-42 0
53.413651 -1.7917401 4.2866001 61 0 0 8.2746674e-42 0
20.089651 -0.66674 1.9366001 4 0 0 8.2760687e-42 0
42.10265 -1.4727401 0.7766 18 0 0 8.27747e-42 0
53.029648 -1.87974 1.8806001 51 0 0 8.2788713e-42 0
52.813648 -1.89274 2.7706001 40 0 0 8.2802726e-42 0
53.32365 -1.92974 3.7046001 72 0 0 8.2816739e-42 0
54.218647 -1.9857401 4.6986003 53 0 0 8.2830752e-42 0
20.075651 -0.72674 2.0646 2 0 0 8.2844765e-42 0
42.16465 -1.60474 1.0416001 4 0 0 8.2858778e-42 0
52.142651 -2.0087399 2.1796 51 0 0 8.2872791e-42 0
52.71365 -2.0487399 3.1016002 75 0 0 8.2886804e-42 0
53.203648 -2.0857399 4.0395999 84 0 0 8.2900817e-42 0
54.857651 -2.1717398 5.1115999 75 0 0 8.291483e-42 0
19.463652 -0.76073998 2.1286001 19 0 0 8.2928843e-42 0
51.945648 -2.13974 1.6186 71 0 0 8.2942856e-42 0
52.071648 -2.1607399 2.5086 80 0 0 8.2956869e-42 0
52.64465 -2.2017398 3.4386001 72 0 0 8.2970882e-42 0
53.440647 -2.2527399 4.4085999 85 0 0 8.2984895e-42 0
54.85965 -2.33074 5.4745998 34 0 0 8.2998908e-42 0
52.000648 -2.2937398 1.9556 83 0 0 8.3012921e-42 0
52.423649 -2.3267398 2.8656001 64 0 0 8.3026934e-42 0
53.277649 -2.37974 3.8266001 53 0 0 8.3040947e-42 0
54.033649 -2.42974 4.8126001 90 0 0 8.305496e-42 0
19.006651 -0.84373999 2.0006001 2 0 0 1 0
51.975647 -2.4387398 2.2886 63 0 0 8.3082986e-42 0
52.874649 -2.4937398 3.2336001 98 0 0 8.3096999e-42 0
53.350647 -2.5287399 4.1785998 78 0 0 8.3111012e-42 0
54.665649 -2.60374 5.2266002 63 0 0 8.3125025e-42 0
18.65765 -0.88073999 2.4126 0 0 0 8.3139038e-42 0
52.090649 -2.5827398 2.6256001 30 0 0 1 0
53.410648 -2.6587398 3.6096001 63 0 0 8.3167064e-42 0
53.937649 -2.6977398 4.5766001 79 0 0 8.3181077e-42 0
55.772648 -2.8017399 5.7026 47 0 0 8.319509e-42 0
18.676651 -0.92874002 2.5416 7 0 0 8.3209103e-42 0
54.086647 -2.8237398 3.0816 32 0 0 8.3223116e-42 0
53.30265 -2.7897398 3.9516001 59 0 0 8.3237129e-42 0
54.832649 -2.87974 5.0156002 74 0 0 8.3251142e-42 0
55.515648 -2.9247398 6.0446 2 0 0 8.3265155e-42 0
18.33065 -0.95473999 2.6176 11 0 0 8.3279168e-42 0
53.794647 -2.9387398 3.4096 54 0 0 8.3293181e-42 0
54.141647 -2.9647398 4.3666 48 0 0 8.3307194e-42 0
55.054649 -3.02474 5.4006 94 0 0 8.3321207e-42 0
17.91765 -0.97474003 2.6816001 18 0 0 8.333522e-42 0
54.722649 -3.1207399 3.8296001 26 0 0 8.3349233e-42 0
54.572647 -3.1177399 4.7646003 61 0 0 8.3363246e-42 0
55.847649 -3.1967399 5.8516002 34 0 0 1 0
18.502651 -1.04574 2.5676 0 0 0 8.3391272e-42 0
17.54665 -0.99274004 2.7476001 14 0 0 8.3405285e-42 0
54.612648 -3.2397399 4.1866002 37 0 0 8.3419298e-42 0
54.83165 -3.2567399 5.1566 107 0 0 8.3433311e-42 0
18.14365 -1.0647401 2.6446002 2 0 0 8.3447324e-42 0
17.52565 -1.02874 2.8666 15 0 0 1 0
55.12965 -3.3927398 4.5995998 51 0 0 8.347535e-42 0
55.364651 -3.4077399 5.5826001 78 0 0 8.3489363e-42 0
18.09165 -1.0977401 2.7625999 9 0 0 8.3503375e-42 0
54.343647 -3.4547398 4.8916001 84 0 0 8.3517388e-42 0
55.707649 -3.5407398 5.9906001 29 0 0 1 0
18.451651 -1.15474 2.6145999 0 0 0 1 0
18.003651 -1.12674 2.8726001 2 0 0 8.3559427e-42 0
54.273647 -3.5557399 5.2495999 91 0 0 8.357344e-42 0
17.44865 -1.12274 2.9056001 9 0 0 8.3587453e-42 0
55.016647 -3.7077398 5.6936002 30 0 0 1 0
18.09165 -1.19774 2.8146 7 0 0 8.3615479e-42 0
17.425652 -1.15174 3.0256 1 0 0 1 0
18.05365 -1.22474 2.9335999 5 0 0 8.3643505e-42 0
17.384651 -1.20574 2.9476001 1 0 0 1 0
18.085651 -1.28374 2.8676 4 0 0 1 0
17.98665 -1.3017401 2.9806001 9 0 0 8.3685544e-42 0
17.936651 -1.32074 3.0976 11 0 0 1 0
17.984652 -1.37174 3.0355999 9 0 0 1 0
17.894651 -1.38174 3.1476002 4 0 0 1 0
18.029652 -1.4167401 2.9706001 1 0 0 1 0
18.068651 -1.43374 3.1046 7 0 0 1 0
15.908649 2.29426 9.6695995 0 0 0 1 0
15.74065 2.3312602 9.5506001 19 0 0 8.3783635e-42 0
15.54665 2.3622601 9.4115992 15 0 0 8.3797648e-42 0
15.29665 2.3712602 9.7045994 5 0 0 1 0
15.35365 2.3912601 9.2705994 14 0 0 8.3825674e-42 0
15.12865 2.4032602 9.5725994 17 0 0 8.3839687e-42 0
15.19365 2.4212601 9.1465998 29 0 0 8.38537e-42 0
14.95365 2.42926 9.4335995 15 0 0 8.3867713e-42 0
14.69365 2.4362602 9.7165995 8 0 0 1 0
15.23465 2.4842601 9.1415997 34 0 0 8.3895739e-42 0
14.75865 2.4512601 9.2795992 16 0 0 8.3909752e-42 0
14.54865 2.46526 9.5885992 16 0 0 8.3923765e-42 0
15.29965 2.5482602 9.1465998 35 0 0 8.3937778e-42 0
14.67065 2.4892602 9.1896 33 0 0 8.3951791e-42 0
14.38865 2.4892602 9.4466 14 0 0 8.3965804e-42 0
14.14165 2.4972601 9.7365999 10 0 0 1 0
15.35565 2.6112602 9.1435995 35 0 0 8.399383e-42 0
14.73365 2.5512602 9.1915998 33 0 0 8.4007843e-42 0
14.22265 2.5102601 9.2995996 15 0 0 8.4021856e-42 0
14.014649 2.5232601 9.6085997 13 0 0 8.4035869e-42 0
15.41665 2.6742601 9.1385994 35 0 0 8.4049882e-42 0
14.804649 2.61326 9.1955996 33 0 0 8.4063895e-42 0
14.16165 2.5462601 9.2175999 30 0 0 8.4077908e-42 0
13.88065 2.5452602 9.4735994 13 0 0 8.4091921e-42 0
13.63065 2.5522602 9.7595997 13 0 0 1 0
15.481649 2.73826 9.1325998 36 0 0 8.4119947e-42 0
14.875649 2.6752601 9.1945992 34 0 0 2 0
14.23565 2.6072602 9.2205992 31 0 0 2 0
13.73665 2.56426 9.3285999 14 0 0 2 0
13.52065 2.5762601 9.6325998 14 0 0 2 0
15.55565 2.8012602 9.1295996 35 0 0 2 0
14.93765 2.7342601 9.1855993 34 0 0 2 0
14.31965 2.6682601 9.2275991 32 0 0 2 0
13.69665 2.60026 9.2525997 29 0 0 8.4232051e-42 0
13.39765 2.5952601 9.4935999 14 0 0 8.4246064e-42 0
13.16265 2.6042602 9.7915993 14 0 0 1 0
15.59465 2.8582602 9.1015997 6 0 0 8.427409e-42 0
15.01765 2.7962601 9.1826 34 0 0 8.4288103e-42 0
14.389649 2.7262602 9.2205992 32 0 0 8.4302116e-42 0
13.78565 2.6602602 9.2605991 30 0 0 8.4316129e-42 0
13.26865 2.6112602 9.3485994 14 0 0 8.4330142e-42 0
13.06265 2.6252601 9.6595993 14 0 0 8.4344155e-42 0
15.55065 2.89926 9.0205994 7 0 0 8.4358168e-42 0
15.087649 2.8562601 9.1705999 34 0 0 8.4372181e-42 0
14.46965 2.7852602 9.2165995 33 0 0 8.4386194e-42 0
13.87065 2.71826 9.2615995 31 0 0 8.4400207e-42 0
13.25965 2.6482601 9.2855997 28 0 0 8.4414219e-42 0
12.95865 2.6412601 9.5235996 12 0 0 8.4428232e-42 0
15.47365 2.9312601 8.9185991 6 0 0 8.4442245e-42 0
15.11465 2.9072602 9.1295996 9 0 0 8.4456258e-42 0
14.55165 2.8442602 9.2105999 32 0 0 8.4470271e-42 0
13.94965 2.77426 9.2556 31 0 0 8.4484284e-42 0
13.14765 2.6642601 9.1475992 17 0 0 8.4498297e-42 0
12.84365 2.6552601 9.3775997 13 0 0 8.451231e-42 0
15.09765 2.9042602 8.6415997 7 0 0 8.4526323e-42 0
15.08965 2.9462602 9.0525999 8 0 0 8.4540336e-42 0
14.63065 2.9022601 9.1985998 32 0 0 8.4554349e-42 0
14.03965 2.8322601 9.2525997 31 0 0 8.4568362e-42 0
12.93865 2.65926 8.9396 15 0 0 8.4582375e-42 0
12.74265 2.66926 9.2395992 14 0 0 8.4596388e-42 0
15.10765 2.9492602 8.5865993 7 0 0 8.4610401e-42 0
15.02565 2.97526 8.9495993 7 0 0 8.4624414e-42 0
14.63765 2.9432602 9.1385994 8 0 0 8.4638427e-42 0
13.59165 2.7792602 8.8925991 20 0 0 8.465244e-42 0
12.84165 2.6732602 8.8085995 15 0 0 8.4666453e-42 0
12.646649 2.6832602 9.1025991 16 0 0 8.4680466e-42 0
15.05365 2.9812601 8.4916 3 0 0 8.4694479e-42 0
14.71865 2.9562602 8.6995993 6 0 0 8.4708492e-42 0
14.59465 2.9732602 9.0425997 11 0 0 8.4722505e-42 0
12.92365 2.6762602 8.3895998 14 0 0 8.4736518e-42 0
12.74565 2.6862602 8.6765995 13 0 0 8.4750531e-42 0
12.61165 2.7072601 9.0085993 27 0 0 8.4764544e-42 0
14.86565 2.9832602 8.3185997 0 0 0 8.4778557e-42 0
14.53165 2.9562602 8.5225992 5 0 0 8.479257e-42 0
12.99465 2.6832602 7.9825997 4 0 0 8.4806583e-42 0
12.82565 2.6902602 8.2595997 13 0 0 8.4820596e-42 0
12.66265 2.7012601 8.5515995 14 0 0 8.4834609e-42 0
12.61165 2.73826 8.9365997 28 0 0 8.4848622e-42 0
14.684649 2.98526 8.1496 0 0 0 8.4862635e-42 0
14.45865 2.9772601 8.4095993 21 0 0 8.4876648e-42 0
12.89465 2.69526 7.8566003 16 0 0 8.4890661e-42 0
12.743649 2.7042601 8.1395998 14 0 0 8.4904674e-42 0
12.58865 2.71526 8.4315996 22 0 0 2 0
12.606649 2.7672601 8.8575993 29 0 0 2 0
14.47165 2.97826 7.9605999 4 0 0 2 0
12.81265 2.7092602 7.7386003 16 0 0 2 0
12.64865 2.7142601 8.0085993 15 0 0 2 0
12.566649 2.7392602 8.3445997 30 0 0 2 0
12.60765 2.7962601 8.7825994 29 0 0 2 0
14.40565 2.9992602 7.8526001 20 0 0 8.5016778e-42 0
12.86265 2.71226 7.3456001 16 0 0 1 0
12.73065 2.7212601 7.6206002 16 0 0 8.5044804e-42 0
12.56965 2.72526 7.8875999 16 0 0 8.5058817e-42 0
12.56465 2.7662601 8.2685995 31 0 0 8.507283e-42 0
12.60365 2.8212602 8.7005997 29 0 0 8.5086843e-42 0
12.78465 2.7262602 7.2326002 17 0 0 8.5100856e-42 0
12.64765 2.7312601 7.4995999 16 0 0 8.5114869e-42 0
12.52465 2.7422602 7.7866001 27 0 0 8.5128882e-42 0
12.56165 2.7922602 8.1896 30 0 0 8.5142895e-42 0
12.58965 2.84326 8.6095991 29 0 0 8.5156908e-42 0
12.82765 2.7312601 6.8546 17 0 0 1 0
12.70965 2.7372601 7.1195998 15 0 0 8.5184934e-42 0
12.580649 2.7432601 7.3875999 16 0 0 8.5198947e-42 0
12.51265 2.7652602 7.7035999 31 0 0 8.521296e-42 0
12.55765 2.8162601 8.1075993 30 0 0 8.5226973e-42 0
12.59065 2.8682601 8.5255995 29 0 0 8.5240986e-42 0
12.750649 2.7412601 6.7426 18 0 0 8.5254999e-42 0
12.632649 2.7472601 7.0046 17 0 0 8.5269012e-42 0
12.507649 2.7532601 7.2705998 19 0 0 8.5283025e-42 0
12.51165 2.7902601 7.6255999 31 0 0 8.5297038e-42 0
12.54965 2.8382602 8.0205994 30 0 0 8.5311051e-42 0
12.587649 2.8902602 8.4375992 29 0 0 8.5325063e-42 0
12.684649 2.7522602 6.6375999 17 0 0 8.5339076e-42 0
12.56565 2.7572601 6.8955998 17 0 0 8.5353089e-42 0
12.47165 2.7692602 7.1756001 31 0 0 8.5367102e-42 0
12.50565 2.8112602 7.5446 32 0 0 8.5381115e-42 0
12.54265 2.8592601 7.9356003 31 0 0 8.5395128e-42 0
12.57965 2.9102602 8.3455992 29 0 0 8.5409141e-42 0
12.62365 2.7632601 6.5346003 16 0 0 8.5423154e-42 0
12.50865 2.7672601 6.7916002 18 0 0 8.5437167e-42 0
12.45765 2.7882602 7.0915999 31 0 0 8.545118e-42 0
12.50365 2.8332601 7.4636002 31 0 0 8.5465193e-42 0
12.53865 2.8792601 7.8485999 31 0 0 8.5479206e-42 0
12.57865 2.9302602 8.2565994 29 0 0 8.5493219e-42 0
12.57565 2.7752602 6.4366002 17 0 0 8.5507232e-42 0
12.45165 2.7762601 6.6845999 22 0 0 8.5521245e-42 0
12.460649 2.8102601 7.0156002 32 0 0 8.5535258e-42 0
12.50165 2.85326 7.3806 31 0 0 8.5549271e-42 0
12.53565 2.8982601 7.7596002 29 0 0 8.5563284e-42 0
12.57165 2.9472601 8.1615992 29 0 0 8.5577297e-42 0
12.51265 2.7832601 6.3295999 17 0 0 8.559131e-42 0
12.43965 2.7952602 6.6006002 35 0 0 8.5605323e-42 0
12.45965 2.8292601 6.9345999 34 0 0 8.5619336e-42 0
12.49265 2.87026 7.2916002 32 0 0 8.5633349e-42 0
12.53565 2.91626 7.6726003 30 0 0 8.5647362e-42 0
12.56965 2.9642601 8.0675993 29 0 0 8.5661375e-42 0
12.455649 2.79126 6.2256002 18 0 0 8.5675388e-42 0
12.441649 2.8152602 6.5246 35 0 0 8.5689401e-42 0
12.45965 2.8482602 6.8536 34 0 0 2 0
12.47965 2.8852601 7.1986003 32 0 0 2 0
12.52265 2.9312601 7.5746002 30 0 0 2 0
12.56365 2.9792602 7.9696002 30 0 0 2 0
12.39965 2.79726 6.1216002 23 0 0 2 0
12.42565 2.8292601 6.4366002 34 0 0 2 0
12.45765 2.8652601 6.7705998 34 0 0 2 0
12.48065 2.9022601 7.1136003 32 0 0 8.5801505e-42 0
12.526649 2.9482601 7.4865999 31 0 0 8.5815518e-42 0
12.55565 2.9932601 7.8695998 30 0 0 8.5829531e-42 0
12.38565 2.8112602 6.0366001 33 0 0 8.5843544e-42 0
12.42865 2.8462601 6.3576002 34 0 0 8.5857557e-42 0
12.44665 2.8792601 6.6796002 34 0 0 8.587157e-42 0
12.47365 2.91626 7.0216002 32 0 0 8.5885583e-42 0
12.51565 2.9592602 7.3885999 30 0 0 8.5899596e-42 0
12.54465 3.0042601 7.7656002 29 0 0 8.5913609e-42 0
12.38465 2.8282602 5.9566002 34 0 0 8.5927622e-42 0
12.41965 2.86026 6.2716002 34 0 0 8.5941635e-42 0
12.44765 2.8942602 6.5956001 35 0 0 8.5955648e-42 0
12.47065 2.92926 6.9306002 33 0 0 8.5969661e-42 0
12.51365 2.97226 7.2946 31 0 0 8.5983674e-42 0
12.53765 3.0142601 7.6636 30 0 0 8.5997687e-42 0
12.38865 2.8442602 5.8786001 38 0 0 8.60117e-42 0
12.41765 2.8742602 6.1876001 35 0 0 8.6025713e-42 0
12.441649 2.90626 6.5065999 34 0 0 8.6039726e-42 0
12.47365 2.9432602 6.8425999 34 0 0 8.6053739e-42 0
12.50265 2.9812601 7.1946001 32 0 0 8.6067752e-42 0
12.54165 3.0262601 7.5676003 30 0 0 8.6081765e-42 0
12.38865 2.8572602 5.7976003 39 0 0 2 0
12.41865 2.8872602 6.1036 39 0 0 2 0
12.462649 2.9232602 6.4306002 38 0 0 2 0
12.46565 2.95226 6.7476001 34 0 0 2 0
12.49765 2.9912601 7.0966001 31 0 0 2 0
12.53665 3.0352602 7.4656 30 0 0 2 0
12.38465 2.8692601 5.7136002 39 0 0 2 0
12.40965 2.8972602 6.0146003 34 0 0 8.6193869e-42 0
12.43865 2.9282601 6.3285999 35 0 0 8.6207882e-42 0
12.46465 2.96226 6.6556001 34 0 0 8.6221895e-42 0
12.488649 2.99826 6.9945998 32 0 0 8.6235907e-42 0
12.52265 3.0402601 7.3576002 30 0 0 8.624992e-42 0
12.38165 2.8802602 5.6296 40 0 0 8.6263933e-42 0
12.40565 2.9072602 5.9266 34 0 0 8.6277946e-42 0
12.42465 2.9352601 6.2326002 34 0 0 2 0
12.46165 2.9712601 6.5606003 35 0 0 2 0
12.481649 3.0052602 6.8945999 32 0 0 2 0
12.514649 3.0452602 7.2505999 30 0 0 2 0
12.37165 2.8872602 5.5416002 38 0 0 2 0
12.40265 2.9152601 5.8396001 39 0 0 2 0
12.43365 2.9462602 6.1486001 38 0 0 2 0
12.45765 2.97826 6.4665999 35 0 0 8.639005e-42 0
12.474649 3.0102601 6.7946 33 0 0 8.6404063e-42 0
12.50165 3.0482602 7.1426001 29 0 0 8.6418076e-42 0
12.37165 2.89626 5.4566002 39 0 0 8.6432089e-42 0
12.39065 2.9202602 5.7466002 38 0 0 8.6446102e-42 0
12.43865 2.9542601 6.0595999 36 0 0 8.6460115e-42 0
12.45665 2.9842601 6.3716002 35 0 0 8.6474128e-42 0
12.47065 3.0142601 6.6936002 33 0 0 8.6488141e-42 0
12.493649 3.0502601 7.0346003 29 0 0 8.6502154e-42 0
12.37165 2.9042602 5.3716002 37 0 0 8.6516167e-42 0
12.38165 2.9262602 5.6536002 39 0 0 8.653018e-42 0
12.40765 2.9542601 5.9535999 34 0 0 8.6544193e-42 0
12.441649 2.9862602 6.2686 34 0 0 8.6558206e-42 0
12.46465 3.0172601 6.5915999 33 0 0 8.6572219e-42 0
12.48765 3.0522602 6.9285998 31 0 0 8.6586232e-42 0
12.35965 2.9072602 5.2806001 41 0 0 8.6600245e-42 0
12.37465 2.92926 5.5616002 41 0 0 8.6614258e-42 0
12.422649 2.96226 5.8685999 40 0 0 8.6628271e-42 0
12.43865 2.9892602 6.1726003 35 0 0 8.6642284e-42 0
12.45865 3.0192602 6.4896002 34 0 0 8.6656297e-42 0
12.47865 3.0522602 6.8206 31 0 0 8.667031e-42 0
12.35165 2.9102602 5.1905999 41 0 0 8.6684323e-42 0
12.37065 2.9332602 5.4706001 41 0 0 8.6698336e-42 0
12.41165 2.9632602 5.7716002 40 0 0 8.6712349e-42 0
12.44065 2.9922602 6.0776 38 0 0 8.6726362e-42 0
12.45265 3.0202601 6.3875999 34 0 0 8.6740375e-42 0
12.47365 3.0522602 6.7146001 32 0 0 8.6754388e-42 0
12.34565 2.9132602 5.1026001 42 0 0 8.6768401e-42 0
12.363649 2.9342601 5.3786001 40 0 0 8.6782414e-42 0
12.39165 2.9602602 5.6696 41 0 0 8.6796427e-42 0
12.43165 2.9912601 5.9776001 37 0 0 8.681044e-42 0
12.44465 3.01826 6.2835999 33 0 0 8.6824453e-42 0
12.467649 3.0502601 6.6076002 32 0 0 8.6838466e-42 0
12.33365 2.9122601 5.0096002 42 0 0 8.6852479e-42 0
12.36665 2.9372602 5.2895999 40 0 0 8.6866492e-42 0
12.38765 2.9602602 5.5746002 41 0 0 2 0
12.41965 2.9892602 5.8755999 39 0 0 2 0
12.43865 3.0162601 6.1806002 34 0 0 2 0
12.46165 3.04726 6.4995999 33 0 0 2 0
12.33265 2.9132602 4.9205999 40 0 0 2 0
12.35365 2.9342601 5.1926003 41 0 0 2 0
12.38165 2.9592602 5.4776001 39 0 0 2 0
12.42065 2.98826 5.7776003 39 0 0 8.6978596e-42 0
12.448649 3.0172601 6.0836 37 0 0 8.6992609e-42 0
12.45365 3.0422602 6.3906002 32 0 0 8.7006622e-42 0
12.32865 2.9122601 4.8285999 42 0 0 8.7020635e-42 0
12.34765 2.93226 5.0985999 42 0 0 8.7034648e-42 0
12.382649 2.9572601 5.3836002 40 0 0 8.7048661e-42 0
12.40465 2.9822602 5.6726003 38 0 0 8.7062674e-42 0
12.42165 3.0072601 5.9696002 33 0 0 8.7076687e-42 0
12.43765 3.0352602 6.2776003 32 0 0 8.70907e-42 0
12.31565 2.9082601 4.7346001 41 0 0 8.7104713e-42 0
12.335649 2.9272602 5.0016003 43 0 0 8.7118726e-42 0
12.368649 2.9512601 5.2825999 40 0 0 8.7132739e-42 0
12.39965 2.9772601 5.5716 40 0 0 8.7146751e-42 0
12.42665 3.0042601 5.8706002 38 0 0 8.7160764e-42 0
12.434649 3.0292602 6.1705999 33 0 0 8.7174777e-42 0
12.309649 2.9042602 4.6436 41 0 0 8.718879e-42 0
12.335649 2.9242601 4.9096003 43 0 0 8.7202803e-42 0
12.36565 2.9472601 5.1866002 41 0 0 8.7216816e-42 0
12.37265 2.9662602 5.4636002 39 0 0 8.7230829e-42 0
12.42465 2.99826 5.7695999 38 0 0 8.7244842e-42 0
12.43265 3.02126 6.0655999 35 0 0 8.7258855e-42 0
12.29665 2.8972602 4.5496001 43 0 0 8.7272868e-42 0
12.33265 2.91926 4.8176003 42 0 0 8.7286881e-42 0
12.35565 2.93926 5.0886002 42 0 0 8.7300894e-42 0
12.37165 2.9602602 5.3656001 39 0 0 8.7314907e-42 0
12.41065 2.98826 5.6616001 39 0 0 8.732892e-42 0
12.41865 3.01126 5.9535999 32 0 0 8.7342933e-42 0
12.29465 2.8922601 4.4596 45 0 0 8.7356946e-42 0
12.323649 2.9112601 4.7216001 42 0 0 8.7370959e-42 0
12.35065 2.93226 4.9916 43 0 0 8.7384972e-42 0
12.36765 2.95226 5.2666001 40 0 0 8.7398985e-42 0
12.38865 2.97526 5.5506001 39 0 0 8.7412998e-42 0
12.41765 3.0022602 5.8495998 38 0 0 8.7427011e-42 0
12.28965 2.8852601 4.3685999 41 0 0 8.7441024e-42 0
12.30865 2.9012601 4.6236 43 0 0 8.7455037e-42 0
12.34365 2.9232602 4.8936 43 0 0 8.746905e-42 0
12.363649 2.9432602 5.1655998 41 0 0 8.7483063e-42 0
12.37665 2.9632602 5.4446001 38 0 0 8.7497076e-42 0
12.41165 2.9912601 5.7416 36 0 0 8.7511089e-42 0
12.26265 2.8712602 4.2695999 30 0 0 8.7525102e-42 0
12.30365 2.8912601 4.5296001 43 0 0 8.7539115e-42 0
12.33465 2.9122601 4.7946 43 0 0 8.7553128e-42 0
12.35065 2.9302602 5.0626001 41 0 0 8.7567141e-42 0
12.37265 2.95226 5.3425999 37 0 0 8.7581154e-42 0
12.39065 2.9742601 5.6286001 36 0 0 8.7595167e-42 0
12.283649 2.8682601 4.1866002 21 0 0 8.760918e-42 0
12.29165 2.8802602 4.4335999 43 0 0 8.7623193e-42 0
12.330649 2.9012601 4.6996002 42 0 0 8.7637206e-42 0
12.34765 2.91926 4.9646001 41 0 0 8.7651219e-42 0
12.363649 2.93926 5.2375998 39 0 0 8.7665232e-42 0
12.37965 2.9602602 5.5195999 35 0 0 8.7679245e-42 0
12.33265 2.8692601 4.1136003 21 0 0 8.7693258e-42 0
12.28465 2.8682601 4.3386002 26 0 0 8.7707271e-42 0
12.31765 2.8882601 4.6006002 43 0 0 8.7721284e-42 0
12.34365 2.9072602 4.8666 42 0 0 8.7735297e-42 0
12.35565 2.9242601 5.1346002 40 0 0 8.774931e-42 0
12.37165 2.94526 5.4126 35 0 0 8.7763323e-42 0
12.363649 2.8662601 4.0335999 22 0 0 8.7777336e-42 0
12.31765 2.8642602 4.2586002 19 0 0 8.7791349e-42 0
12.32065 2.87626 4.5065999 39 0 0 8.7805362e-42 0
12.32965 2.8902602 4.7646003 40 0 0 8.7819375e-42 0
12.34865 2.90926 5.0325999 40 0 0 8.7833388e-42 0
12.35965 2.9272602 5.3046002 37 0 0 8.7847401e-42 0
12.40665 2.8642602 3.9576001 21 0 0 8.7861414e-42 0
12.36265 2.8622601 4.1835999 21 0 0 8.7875427e-42 0
12.31365 2.8612602 4.4106002 20 0 0 8.788944e-42 0
12.33165 2.8772602 4.6686001 40 0 0 8.7903453e-42 0
12.337649 2.8922601 4.9285998 41 0 0 8.7917466e-42 0
12.35865 2.9122601 5.2016001 38 0 0 8.7931479e-42 0
12.45965 2.86326 3.8836 23 0 0 8.7945492e-42 0
12.42065 2.8612602 4.1096001 21 0 0 8.7959505e-42 0
12.37765 2.8612602 4.3386002 19 0 0 8.7973518e-42 0
12.31765 2.8582602 4.5665998 21 0 0 8.7987531e-42 0
12.349649 2.8782601 4.8336 39 0 0 8.8001544e-42 0
12.34865 2.8922601 5.0956001 39 0 0 8.8015557e-42 0
12.51165 2.86026 3.8085999 23 0 0 8.802957e-42 0
12.47865 2.86026 4.0366001 22 0 0 8.8043583e-42 0
12.42565 2.8572602 4.2616 20 0 0 8.8057595e-42 0
12.37765 2.8562601 4.4926 19 0 0 8.8071608e-42 0
12.316649 2.8542602 4.7216001 24 0 0 8.8085621e-42 0
12.36265 2.8782601 4.9995999 39 0 0 8.8099634e-42 0
12.57465 2.8582602 3.7366002 22 0 0 8.8113647e-42 0
12.53465 2.8562601 3.9616001 23 0 0 8.812766e-42 0
12.48665 2.85326 4.1876001 20 0 0 8.8141673e-42 0
12.43765 2.8522601 4.4176002 20 0 0 8.8155686e-42 0
12.38765 2.8522601 4.6506 19 0 0 8.8169699e-42 0
12.33165 2.8522601 4.8846002 25 0 0 8.8183712e-42 0
12.63665 2.8552601 3.6626 23 0 0 1 0
12.60265 2.8542602 3.8886001 22 0 0 8.8211738e-42 0
