# .PCD v0.7 - Point Cloud Data file format
VERSION 0.7
FIELDS x y z intensity normal_x normal_y normal_z curvature
SIZE 4 4 4 4 4 4 4 4
TYPE F F F F F F F F
COUNT 1 1 1 1 1 1 1 1
WIDTH 957
HEIGHT 1
VIEWPOINT 0 0 0 1 0 0 0
POINTS 957
DATA ascii
14.933351 -3.3305507 -2.4390635 11 0 0 2 0
16.813402 -3.7543647 -2.4897239 6 0 0 2 0
8.1728315 -1.8809497 -1.8729634 12 0 0 2 0
9.2209082 -2.1199305 -1.9648848 13 0 0 2 0
10.574309 -2.4314532 -2.0860696 13 0 0 2 0
12.326131 -2.8350618 -2.2386029 12 0 0 2 0
14.597513 -3.3591609 -2.4235895 10 0 0 2 0
16.854982 -3.8832173 -2.5395579 6 0 0 2.2196568e-42 0
8.0519848 -1.9105259 -1.8677602 12 0 0 2.2210581e-42 0
9.0520544 -2.146734 -1.9546255 13 0 0 2.2224594e-42 0
10.372463 -2.4594157 -2.0747666 13 0 0 2.2238607e-42 0
12.051266 -2.8573706 -2.2202172 12 0 0 2.225262e-42 0
14.241638 -3.3788614 -2.4021053 11 0 0 2.2266633e-42 0
17.191856 -4.0826864 -2.6346467 26 0 0 2.2280646e-42 0
7.9471521 -1.9430268 -1.8645724 12 0 0 2 0
8.8941975 -2.1724818 -1.943382 13 0 0 2 0
10.187623 -2.4882951 -2.0634837 12 0 0 2 0
11.808415 -2.8835287 -2.2058649 12 0 0 2 0
13.9448 -3.4072814 -2.3866816 12 0 0 2 0
16.417622 -4.0153551 -2.5557804 22 0 0 2 0
7.853322 -1.9764768 -1.863397 13 0 0 2 0
8.7603598 -2.20312 -1.9371606 13 0 0 2.2392749e-42 0
10.010776 -2.5161369 -2.0532126 12 0 0 2.2406762e-42 0
11.586577 -2.912586 -2.1925349 12 0 0 2.2420775e-42 0
13.638938 -3.4297404 -2.3672562 14 0 0 2.2434788e-42 0
15.534222 -3.909529 -2.4548411 23 0 0 2.2448801e-42 0
7.7404742 -2.0050111 -1.8562059 13 0 0 2.2462814e-42 0
8.6225157 -2.2317731 -1.927938 13 0 0 2.2476827e-42 0
9.8329258 -2.5429811 -2.0409422 12 0 0 2.249084e-42 0
11.369732 -2.9396172 -2.178215 13 0 0 2.2504853e-42 0
13.344077 -3.4521439 -2.3468454 15 0 0 2.2518866e-42 0
14.809946 -3.8339524 -2.3740528 29 0 0 2.2532879e-42 0
7.6276178 -2.0315442 -1.8480184 13 0 0 2.2546892e-42 0
8.1713343 -2.1748588 -1.8474631 12 0 0 2.2560905e-42 0
9.657074 -2.5688126 -2.0266762 13 0 0 2.2574918e-42 0
11.193932 -2.9774578 -2.1709287 13 0 0 2.2588931e-42 0
13.074227 -3.4774287 -2.3284614 13 0 0 2.2602944e-42 0
14.08163 -3.7483897 -2.288276 28 0 0 2.2616957e-42 0
7.537786 -2.0639708 -1.8438501 13 0 0 2.263097e-42 0
7.9844098 -2.1837316 -1.8232117 35 0 0 2.2644983e-42 0
8.0055876 -2.1884284 -1.7002294 188 0 0 1 0
8.0347786 -2.1960874 -1.5782522 55 0 0 1 0
8.0539618 -2.2017944 -1.4552659 3 0 0 1 0
8.0180864 -2.1937599 -1.3242332 0 0 0 1 0
7.4499493 -2.095387 -1.839686 14 0 0 2.2715048e-42 0
7.9506488 -2.2339032 -1.8330845 36 0 0 2.2729061e-42 0
7.9698229 -2.2376082 -1.7091013 255 0 0 2.2743074e-42 0
7.9819984 -2.2413466 -1.5841092 255 0 0 2.2757087e-42 0
8.0071878 -2.2490284 -1.4641271 255 0 0 2.27711e-42 0
8.0253706 -2.2547405 -1.3411394 255 0 0 2.2785113e-42 0
7.374125 -2.1297481 -1.8375324 12 0 0 2.2799126e-42 0
7.9168882 -2.2840748 -1.8429574 37 0 0 2.2813139e-42 0
7.9721079 -2.2986135 -1.7260014 255 0 0 2.2827152e-42 0
7.9822731 -2.3003614 -1.6010101 212 0 0 2.2841165e-42 0
8.0044613 -2.3070538 -1.4780259 225 0 0 2.2855178e-42 0
8.019639 -2.3117802 -1.3550361 255 0 0 2.2869191e-42 0
7.3002973 -2.1630976 -1.834383 13 0 0 2.2883204e-42 0
7.9021502 -2.3391559 -1.854846 36 0 0 2.2897217e-42 0
7.9753876 -2.3586133 -1.7429047 198 0 0 2.291123e-42 0
7.9725385 -2.3564193 -1.6139034 189 0 0 2.2925243e-42 0
8.0017328 -2.3650801 -1.4929248 205 0 0 1 0
8.0489588 -2.3806567 -1.3749572 175 0 0 1 0
7.2284741 -2.1974373 -1.8312345 13 0 0 2.2967282e-42 0
6.5798163 -1.9972049 -1.5587505 17 0 0 1 0
6.7441454 -2.0452781 -1.4878762 6 0 0 2.2995308e-42 0
9.2644491 -2.8084683 -1.8907748 216 0 0 2.3009321e-42 0
9.2916708 -2.8171029 -1.7477936 183 0 0 2.3023334e-42 0
9.2998667 -2.8198287 -1.6027981 219 0 0 2.3037347e-42 0
6.5619063 -2.0444744 -1.6766496 22 0 0 2.305136e-42 0
6.4999528 -2.0225809 -1.5526072 30 0 0 2.3065373e-42 0
6.5391283 -2.0332291 -1.4546376 29 0 0 2.3079386e-42 0
9.3328657 -2.8991654 -1.9207088 67 0 0 2.3093399e-42 0
9.3640938 -2.9087789 -1.7767309 67 0 0 2.3107412e-42 0
9.388319 -2.9174256 -1.6317457 97 0 0 2.3121425e-42 0
6.5040684 -2.0757463 -1.673524 27 0 0 2.3135438e-42 0
6.4591336 -2.0587752 -1.5534947 34 0 0 2.3149451e-42 0
6.4812841 -2.0635028 -1.4525137 34 0 0 2.3163464e-42 0
6.5825453 -2.0948668 -1.368588 12 0 0 1 0
10.500972 -3.342515 -2.0074372 30 0 0 2.319149e-42 0
10.813614 -3.4427867 -1.8946621 49 0 0 2.3205503e-42 0
6.4682631 -2.1149178 -1.6754135 28 0 0 2.3219516e-42 0
6.4263258 -2.0979352 -1.5573878 34 0 0 2.3233529e-42 0
6.448482 -2.1036613 -1.4554052 35 0 0 2.3247542e-42 0
6.5407314 -2.1320665 -1.369473 27 0 0 2.3261555e-42 0
10.162885 -3.3120942 -1.9580621 51 0 0 2.3275567e-42 0
10.51158 -3.4262052 -1.8563092 54 0 0 2.328958e-42 0
6.4524813 -2.1599979 -1.682318 29 0 0 2.3303593e-42 0
6.4105401 -2.1420138 -1.5632941 38 0 0 2.3317606e-42 0
6.4276881 -2.1457632 -1.4603083 35 0 0 2.3331619e-42 0
6.5149288 -2.1721916 -1.373373 29 0 0 2.3345632e-42 0
9.8858576 -3.2963879 -1.9187388 47 0 0 2.3359645e-42 0
10.268616 -3.4253464 -1.8270041 57 0 0 2.3373658e-42 0
6.4407048 -2.2060585 -1.6892259 29 0 0 2.3387671e-42 0
6.3967586 -2.1870844 -1.5702012 34 0 0 2.3401684e-42 0
6.4209151 -2.1928005 -1.4682211 33 0 0 2.3415697e-42 0
6.4991484 -2.2172704 -1.3792778 28 0 0 2.342971e-42 0
9.6618948 -3.2954328 -1.887458 51 0 0 2.3443723e-42 0
10.112762 -3.4500792 -1.8117661 66 0 0 2.3457736e-42 0
6.4659815 -2.26495 -1.7051592 27 0 0 2.3471749e-42 0
6.4120207 -2.2420192 -1.5821284 32 0 0 2.3485762e-42 0
6.4231539 -2.2427969 -1.4781402 32 0 0 2.3499775e-42 0
6.5094023 -2.2702267 -1.3892019 23 0 0 2.3513788e-42 0
9.3597984 -3.2638395 -1.8401302 46 0 0 2.3527801e-42 0
9.5723152 -3.338604 -1.7262716 53 0 0 2.3541814e-42 0
6.5934062 -2.3603792 -1.7481601 19 0 0 2.3555827e-42 0
6.4453058 -2.3028729 -1.5990685 24 0 0 1 0
6.451438 -2.3026705 -1.4920756 28 0 0 2.3583853e-42 0
6.5426998 -2.3330767 -1.4041387 2 0 0 1 0
9.2019062 -3.2795744 -1.8189049 40 0 0 2.3611879e-42 0
9.0288267 -3.2181404 -1.6377884 43 0 0 2.3625892e-42 0
6.8820901 -2.5180769 -1.8332604 13 0 0 2.3639905e-42 0
7.6453657 -2.7914107 -1.9047638 16 0 0 2.3653918e-42 0
6.5147762 -2.3753831 -1.5140338 0 0 0 1 0
8.7944403 -3.2036989 -1.8925196 22 0 0 2.3681944e-42 0
9.0970917 -3.3130634 -1.8077168 46 0 0 2.3695957e-42 0
8.9880991 -3.2723315 -1.6386465 51 0 0 2.370997e-42 0
6.844296 -2.5582511 -1.8311456 14 0 0 2.3723983e-42 0
7.5965848 -2.8336356 -1.9006319 16 0 0 2.3737996e-42 0
8.3719416 -3.1178744 -1.9511323 33 0 0 2.3752009e-42 0
8.5523882 -3.1818168 -1.8492514 42 0 0 2.3766022e-42 0
8.9752331 -3.3366287 -1.7915239 46 0 0 2.3780035e-42 0
8.7029743 -3.235661 -1.5943487 44 0 0 2.3794048e-42 0
6.8315387 -2.6073112 -1.8350477 13 0 0 2.3808061e-42 0
7.5558062 -2.8768237 -1.8985083 13 0 0 2.3822074e-42 0
8.1579161 -3.1018577 -1.9098896 22 0 0 2.3836087e-42 0
8.3493814 -3.170753 -1.8130143 41 0 0 2.38501e-42 0
8.9555416 -3.3987191 -1.7943953 51 0 0 2.3864113e-42 0
8.848547 -3.3579807 -1.6273276 48 0 0 2.3878126e-42 0
6.825789 -2.6583397 -1.8409554 14 0 0 2.3892139e-42 0
7.532063 -2.9279323 -1.8993933 13 0 0 2.3906152e-42 0
7.9538898 -3.0857918 -1.8686595 18 0 0 2.3920165e-42 0
8.2014532 -3.1784348 -1.7878152 39 0 0 2.3934178e-42 0
8.5181475 -3.2987447 -1.7130117 46 0 0 2.3948191e-42 0
8.5513735 -3.3103631 -1.578033 76 0 0 2.3962204e-42 0
6.8060212 -2.7044299 -1.8418535 15 0 0 2.3976217e-42 0
7.5033035 -2.9750628 -1.8982785 14 0 0 2.399023e-42 0
7.7498507 -3.0667248 -1.8264344 19 0 0 2.4004243e-42 0
8.0465002 -3.1801467 -1.7596173 38 0 0 2.4018256e-42 0
8.3732243 -3.3074145 -1.6898149 43 0 0 2.4032269e-42 0
8.3152924 -3.2834592 -1.5387809 59 0 0 2.4046282e-42 0
6.7772379 -2.7465599 -1.8397473 15 0 0 2.4060295e-42 0
7.461524 -3.0172515 -1.8931556 17 0 0 2.4074308e-42 0
7.6149197 -3.0733416 -1.8002537 24 0 0 2.4088321e-42 0
7.9035668 -3.185801 -1.7324281 46 0 0 2.4102334e-42 0
8.1020708 -3.2636673 -1.6395469 47 0 0 2.4116347e-42 0
8.0110731 -3.2258732 -1.4864944 46 0 0 2.413036e-42 0
6.7564673 -2.791652 -1.8386461 12 0 0 2.4144373e-42 0
7.3045387 -3.0109653 -1.8589687 22 0 0 2.4158386e-42 0
7.5090322 -3.0898228 -1.7790931 32 0 0 2.4172399e-42 0
7.8377542 -3.2201006 -1.7222881 44 0 0 2.4186411e-42 0
8.0933685 -3.322701 -1.6404375 42 0 0 2.4200424e-42 0
7.6597419 -3.1435053 -1.4241898 41 0 0 2.4214437e-42 0
6.7356973 -2.8367441 -1.8375449 13 0 0 2.422845e-42 0
7.1315155 -2.9957492 -1.8187764 17 0 0 2.4242463e-42 0
7.3820958 -3.0954003 -1.7529243 35 0 0 3 0
7.7679338 -3.2524173 -1.7101467 46 0 0 3 0
8.0445929 -3.3649194 -1.6323059 44 0 0 3 0
7.714139 -3.2252445 -1.4361221 53 0 0 3 0
6.7209311 -2.882808 -1.8374498 15 0 0 3 0
6.9644866 -2.9795058 -1.7795935 17 0 0 3 0
7.2711759 -3.1049039 -1.7297691 35 0 0 3 0
7.8333559 -3.3401074 -1.7260829 41 0 0 2.4354567e-42 0
7.9988217 -3.4081242 -1.6251764 43 0 0 2.436858e-42 0
7.7014089 -3.2782958 -1.4350177 50 0 0 2.4382593e-42 0
6.7101746 -2.9308517 -1.8373563 22 0 0 2.4396606e-42 0
6.8144836 -2.9691832 -1.7434224 24 0 0 2.4410619e-42 0
7.123179 -3.0965755 -1.6965969 34 0 0 2.4424632e-42 0
7.8316588 -3.4001069 -1.7269809 45 0 0 2.4438645e-42 0
7.9750857 -3.4592249 -1.6210616 41 0 0 2.4452658e-42 0
7.485291 -3.2442956 -1.3958027 41 0 0 2.4466671e-42 0
6.6002364 -2.9353435 -1.8092108 20 0 0 2.4480684e-42 0
6.7646561 -3.0004051 -1.7333078 29 0 0 2.4494697e-42 0
7.028276 -3.1100032 -1.6754555 37 0 0 2.450871e-42 0
7.5935011 -3.3551972 -1.6757565 37 0 0 2.4522723e-42 0
7.6317186 -3.3678083 -1.5517823 65 0 0 2.4536736e-42 0
7.4424963 -3.2824836 -1.3866855 62 0 0 2.4550749e-42 0
6.4461975 -2.9170358 -1.7690477 18 0 0 2.4564762e-42 0
6.6707349 -3.0098257 -1.7101743 40 0 0 2.4578775e-42 0
7.022541 -3.1620209 -1.6743618 44 0 0 2.4592788e-42 0
7.4945989 -3.3686442 -1.6546099 44 0 0 2.4606801e-42 0
7.7151847 -3.464411 -1.5687265 43 0 0 2.4620814e-42 0
7.2173343 -3.2385232 -1.3434759 39 0 0 2.4634827e-42 0
6.3051705 -2.9016678 -1.7318962 18 0 0 2.464884e-42 0
6.596849 -3.0271533 -1.6910527 35 0 0 2.4662853e-42 0
7.1200089 -3.2605639 -1.6973206 45 0 0 2.4676866e-42 0
7.5239463 -3.4384966 -1.6595308 47 0 0 2.4690879e-42 0
7.7315154 -3.5303228 -1.5706375 49 0 0 2.4704892e-42 0
7.2486773 -3.3073642 -1.3474009 39 0 0 2.4718905e-42 0
6.1891866 -2.8961842 -1.6997596 19 0 0 2.4732918e-42 0
6.5179496 -3.0415044 -1.6709298 37 0 0 2.4746931e-42 0
7.1723919 -3.3393128 -1.7092555 37 0 0 2.4760944e-42 0
7.6024041 -3.5331221 -1.675472 42 0 0 2.4774957e-42 0
7.7338171 -3.5892975 -1.5685424 47 0 0 2.478897e-42 0
7.2699981 -3.3712516 -1.3493215 41 0 0 2.4802983e-42 0
6.1503501 -2.9253511 -1.6886625 25 0 0 2.4816996e-42 0
6.5061789 -3.0855472 -1.6668419 37 0 0 2.4831009e-42 0
7.219768 -3.4160836 -1.7191874 40 0 0 2.4845022e-42 0
7.5566044 -3.56932 -1.6633544 46 0 0 2.4859035e-42 0
7.6118593 -3.5898485 -1.5403883 39 0 0 2.4873048e-42 0
7.1269765 -3.3589063 -1.3201624 37 0 0 2.4887061e-42 0
6.0413637 -2.9198365 -1.658535 29 0 0 2.4901074e-42 0
6.4423003 -3.1048286 -1.6497298 55 0 0 2.4915087e-42 0
7.2310772 -3.4770176 -1.7191006 41 0 0 2.49291e-42 0
7.5498848 -3.6233349 -1.6582564 47 0 0 2.4943113e-42 0
7.6702867 -3.6765621 -1.549318 40 0 0 2.4957126e-42 0
7.2414985 -3.4663532 -1.3361276 90 0 0 2.4971139e-42 0
5.9834795 -2.9380887 -1.641432 30 0 0 2.4985152e-42 0
6.4676037 -3.1657004 -1.6536605 65 0 0 2.4999165e-42 0
7.3095269 -3.5696416 -1.7340453 42 0 0 2.5013178e-42 0
7.4519668 -3.6327734 -1.6341178 47 0 0 2.5027191e-42 0
7.7758126 -3.7850542 -1.5662702 40 0 0 2 0
7.3059225 -3.5520341 -1.3430662 42 0 0 2 0
5.9125557 -2.9473996 -1.6203276 31 0 0 2 0
6.7294292 -3.3454914 -1.7176908 43 0 0 2 0
7.4400954 -3.6890254 -1.7610111 43 0 0 2 0
7.6386633 -3.7798922 -1.670108 44 0 0 2 0
7.7059579 -3.8083611 -1.5471438 42 0 0 2 0
7.2360511 -3.5723431 -1.324945 38 0 0 2.5139294e-42 0
5.9288278 -3.0013137 -1.6222588 31 0 0 2.5153307e-42 0
6.8028536 -3.433141 -1.7326378 37 0 0 2.516732e-42 0
7.5366001 -3.7935655 -1.7799588 40 0 0 2.5181333e-42 0
7.6259332 -3.8309324 -1.6620075 49 0 0 2.5195346e-42 0
7.6210575 -3.8217359 -1.5240152 43 0 0 2.5209359e-42 0
7.4538255 -3.734303 -1.3579495 47 0 0 2.5223372e-42 0
5.9340692 -3.0482762 -1.6201875 33 0 0 2.5237385e-42 0
6.8351879 -3.4999769 -1.7365675 38 0 0 2.5251398e-42 0
7.5940247 -3.8792822 -1.7878886 44 0 0 2.5265411e-42 0
7.5640845 -3.8551981 -1.6418896 45 0 0 2.5279424e-42 0
7.6093292 -3.8727698 -1.5149159 45 0 0 2.5293437e-42 0
7.7147202 -3.9220583 -1.3979652 45 0 0 2.530745e-42 0
6.0084677 -3.130923 -1.6361439 46 0 0 2.5321463e-42 0
6.888577 -3.5787146 -1.744504 39 0 0 2.5335476e-42 0
7.5000963 -3.8856947 -1.7597604 43 0 0 2.5349489e-42 0
7.5503407 -3.9032416 -1.6327927 50 0 0 2.5363502e-42 0
7.6416903 -3.9435968 -1.513839 53 0 0 2.5377515e-42 0
7.6638927 -3.9512742 -1.3808529 47 0 0 2.5391528e-42 0
6.1139455 -3.2314279 -1.6601098 36 0 0 2.5405541e-42 0
7.0301676 -3.703048 -1.7744755 39 0 0 2.5419554e-42 0
7.5555134 -3.9694178 -1.7656912 41 0 0 3 0
7.4293408 -3.8937795 -1.5986568 48 0 0 3 0
7.7331967 -4.0461473 -1.5237837 53 0 0 3 0
7.3835111 -3.8595655 -1.3216536 44 0 0 3 0
6.1693125 -3.3061597 -1.6700554 36 0 0 3 0
7.1056161 -3.7946835 -1.7874182 40 0 0 3 0
7.4635816 -3.9748194 -1.736567 41 0 0 3 0
7.4075713 -3.935859 -1.5865598 44 0 0 2.5531658e-42 0
7.4919105 -3.9742489 -1.4676005 76 0 0 2.5545671e-42 0
7.3196321 -3.8778419 -1.3015431 45 0 0 2.5559684e-42 0
6.2597589 -3.3987296 -1.6880155 36 0 0 2.5573697e-42 0
7.1620231 -3.8764024 -1.7933537 37 0 0 2.558771e-42 0
7.5420537 -4.0704341 -1.7465069 47 0 0 2.5601723e-42 0
7.5371675 -4.0582323 -1.6045195 49 0 0 2.5615736e-42 0
7.4300342 -3.9925122 -1.4454926 64 0 0 2.5629749e-42 0
7.6928287 -4.1290612 -1.3565944 55 0 0 2.5643762e-42 0
6.3472114 -3.492312 -1.7049701 32 0 0 2.5657775e-42 0
7.2344704 -3.9670475 -1.8032943 42 0 0 2.5671788e-42 0
7.424046 -4.0589547 -1.7103781 59 0 0 2.5685801e-42 0
7.6477246 -4.1716933 -1.6184701 36 0 0 2.5699814e-42 0
7.8363309 -4.2665844 -1.5125477 43 0 0 2.5713827e-42 0
4.8960757 -2.6591964 -0.86052579 8 0 0 0 0
6.4216347 -3.5789533 -1.7179201 31 0 0 2.5741853e-42 0
7.2247152 -4.0120687 -1.7922076 41 0 0 2.5755866e-42 0
7.2027688 -3.9879518 -1.6502184 37 0 0 2.5769879e-42 0
4.7727666 -2.6330388 -1.0074164 8 0 0 0 0
7.6320963 -4.206512 -1.4623911 10 0 0 2.5797905e-42 0
4.9513955 -2.7229176 -0.86248946 28 0 0 0 0
6.5020728 -3.6685641 -1.7308725 31 0 0 3 0
7.3061876 -4.1076684 -1.8021513 50 0 0 3 0
4.835022 -2.7068751 -1.1033731 11 0 0 0 0
4.806026 -2.6838651 -1.0063738 43 0 0 0 0
4.9996071 -2.7868154 -0.95344484 69 0 0 0 0
4.8122158 -2.6785536 -0.83038855 87 0 0 0 0
6.5444193 -3.7373488 -1.7338117 34 0 0 3 0
7.4417987 -4.2340193 -1.825112 51 0 0 2.5924022e-42 0
4.8432174 -2.74382 -1.0983222 12 0 0 0 0
4.828258 -2.7287428 -1.0033274 42 0 0 0 0
4.8293419 -2.7235959 -0.91433626 21 0 0 0 0
4.6028371 -2.591521 -0.78627044 20 0 0 0 0
6.6178432 -3.822988 -1.742762 39 0 0 2.5994087e-42 0
4.7019558 -2.703599 -1.1492128 7 0 0 0 0
4.7110486 -2.7004135 -1.0612283 32 0 0 0 0
4.7853193 -2.7359235 -0.98626155 97 0 0 0 0
4.63099 -2.6415055 -0.86822367 37 0 0 0 0
4.5508623 -2.591747 -0.76920485 19 0 0 0 0
6.7133346 -3.9235265 -1.7577152 38 0 0 3 0
4.7432323 -2.7583899 -1.1511738 15 0 0 0 0
4.765357 -2.7621427 -1.0651942 14 0 0 0 0
4.791502 -2.769875 -0.97921306 121 0 0 0 0
4.5318871 -2.6139522 -0.84214509 40 0 0 0 0
4.5951419 -2.6465189 -0.76816964 119 0 0 0 0
6.7907739 -4.012145 -1.7666656 36 0 0 2.6162242e-42 0
4.6641855 -2.741735 -1.1241022 7 0 0 0 0
4.7795587 -2.8000557 -1.0591491 69 0 0 0 0
4.8087115 -2.8097749 -0.97416836 59 0 0 0 0
4.6373277 -2.7034359 -0.85212886 140 0 0 0 0
4.50806 -2.6239104 -0.74509788 115 0 0 0 0
6.8281083 -4.0769448 -1.7636049 38 0 0 3 0
4.6282516 -2.7498808 -1.1070437 14 0 0 0 0
4.8078008 -2.8469033 -1.0561068 69 0 0 0 0
4.5090594 -2.6621544 -0.9050374 18 0 0 0 0
4.5923634 -2.705627 -0.83506882 104 0 0 0 0
4.3587971 -2.5625954 -0.71101236 35 0 0 0 0
4.7747526 -2.8783343 -1.227016 4 0 0 1 0
4.5712481 -2.743124 -1.0849833 12 0 0 0 0
4.7447896 -2.8381748 -1.0330422 60 0 0 0 0
4.3567877 -2.5978465 -0.86595303 56 0 0 0 0
4.6356354 -2.7584 -0.83203548 150 0 0 0 0
4.4000592 -2.6133792 -0.7079798 150 0 0 0 0
4.7789221 -2.9092941 -1.2189698 2 0 0 3 0
4.5513449 -2.7581952 -1.0709333 11 0 0 0 0
5.0748663 -3.0666173 -1.0940773 27 0 0 0 0
4.3208313 -2.6019948 -0.84990108 47 0 0 0 0
4.4994025 -2.7030203 -0.79795635 150 0 0 0 0
4.4884524 -2.6919384 -0.71196026 150 0 0 0 0
4.8603039 -2.986897 -1.2289432 7 0 0 3 0
4.3970656 -2.6908879 -1.0258515 34 0 0 0 0
4.6648741 -2.8445024 -0.99593139 124 0 0 0 0
4.3169594 -2.6239908 -0.83885962 22 0 0 0 0
4.2729039 -2.5910678 -0.74885803 34 0 0 0 0
4.3000622 -2.6038098 -0.67187011 18 0 0 0 0
4.9276505 -3.0565634 -1.234912 7 0 0 2.6582632e-42 0
4.3169799 -2.6662376 -0.99779183 53 0 0 0 0
4.2448282 -2.6114376 -0.89679092 61 0 0 0 0
4.6159492 -2.8315642 -0.88489008 150 0 0 0 0
4.3372211 -2.6537423 -0.74983454 150 0 0 0 0
4.3262696 -2.642662 -0.66483843 82 0 0 0 0
4.8726506 -3.0497935 -1.2108542 8 0 0 3 0
4.3301492 -2.6971533 -0.98975682 61 0 0 0 0
4.2790561 -2.655256 -0.89376098 113 0 0 0 0
4.4516158 -2.7543128 -0.842812 150 0 0 0 0
4.3483858 -2.6836665 -0.74079871 151 0 0 0 0
4.2602034 -2.6239548 -0.64478636 35 0 0 0 0
4.5939937 -2.8990543 -1.1317544 0 0 0 2.6750788e-42 0
4.1948876 -2.6347601 -0.94969046 29 0 0 0 0
4.2490997 -2.6593745 -0.87771648 50 0 0 0 0
4.3384204 -2.7068217 -0.81074864 150 0 0 0 0
4.22616 -2.6302209 -0.70873398 43 0 0 0 0
4.2182097 -2.6201305 -0.62673986 41 0 0 0 0
4.2882438 -2.7284417 -1.0466536 150 0 0 0 0
4.167933 -2.6388621 -0.93264967 55 0 0 0 0
4.3394899 -2.7379282 -0.88469934 80 0 0 0 0
4.1720557 -2.6235824 -0.76967788 74 0 0 0 0
4.2563725 -2.6700532 -0.70170557 150 0 0 0 0
4.3086014 -2.6976745 -0.62772429 48 0 0 0 0
4.2231765 -2.7077184 -1.019606 10 0 0 0 0
4.2131886 -2.6886284 -0.9316237 150 0 0 0 0
4.1711097 -2.6506932 -0.83963251 39 0 0 0 0
4.1099882 -2.6038508 -0.74663246 42 0 0 0 0
4.203331 -2.6562808 -0.68166155 76 0 0 0 0
4.1943808 -2.6461954 -0.5996663 60 0 0 0 0
4.1641164 -2.6889684 -0.99456269 38 0 0 0 0
4.1430945 -2.6629322 -0.90557808 150 0 0 0 0
4.1702237 -2.6696727 -0.82759964 40 0 0 0 0
4.0990682 -2.6158793 -0.73359853 63 0 0 0 0
4.1733561 -2.6563983 -0.66462344 38 0 0 0 0
4.1724234 -2.6502759 -0.5846315 36 0 0 0 0
4.1832843 -2.7198558 -0.98753524 10 0 0 0 0
4.1231432 -2.6680012 -0.88954425 150 0 0 0 0
4.1282115 -2.6618471 -0.80855966 46 0 0 0 0
4.1663771 -2.6765373 -0.7335819 89 0 0 0 0
4.1002436 -2.6277223 -0.64157903 51 0 0 0 0
4.2277026 -2.7039859 -0.57961136 102 0 0 0 0
4.034945 -2.6405194 -0.94148034 150 0 0 0 0
4.1463261 -2.7018683 -0.88251692 150 0 0 0 0
4.2236037 -2.7403722 -0.81354856 100 0 0 0 0
4.2246647 -2.7322352 -0.73056221 150 0 0 0 0
4.1133895 -2.6536353 -0.6315521 78 0 0 0 0
4.2388453 -2.7289073 -0.56858355 91 0 0 0 0
4.0761733 -2.6843028 -0.93845898 62 0 0 0 0
4.1303749 -2.7069173 -0.86648792 150 0 0 0 0
4.1805778 -2.7295499 -0.79351211 44 0 0 0 0
4.0923615 -2.6628361 -0.69551092 66 0 0 0 0
4.1305423 -2.6805263 -0.62052846 41 0 0 0 0
4.1175699 -2.6664629 -0.53953463 34 0 0 0 0
4.0451803 -2.6804223 -0.91942614 62 0 0 0 0
4.0462141 -2.6672871 -0.8374477 48 0 0 0 0
4.1295204 -2.7117636 -0.77047706 150 0 0 0 0
4.053339 -2.6529961 -0.67647785 73 0 0 0 0
4.1356506 -2.6984761 -0.60850453 74 0 0 0 0
4.1156611 -2.6804447 -0.52550846 30 0 0 0 0
4.0593157 -2.7043316 -0.91040367 52 0 0 0 0
4.1245551 -2.7348938 -0.8404333 43 0 0 0 0
4.1426563 -2.7356763 -0.76045328 48 0 0 0 0
4.0393863 -2.6580369 -0.66145146 68 0 0 0 0
4.0735517 -2.6727469 -0.58646882 41 0 0 0 0
4.1127467 -2.6934319 -0.51148272 20 0 0 0 0
4.1647344 -2.7888124 -0.91939515 150 0 0 0 0
4.0393767 -2.6912661 -0.80939817 66 0 0 0 0
4.0514569 -2.6880803 -0.73041725 42 0 0 0 0
4.0103822 -2.6521482 -0.64342421 38 0 0 0 0
4.167942 -2.7492671 -0.58545953 62 0 0 0 0
4.1399183 -2.7242744 -0.5014649 40 0 0 0 0
4.1036301 -2.7610714 -0.89336383 150 0 0 0 0
4.1136942 -2.7538912 -0.81138688 150 0 0 0 0
3.9973691 -2.6643095 -0.70738816 48 0 0 0 0
4.1659594 -2.7683792 -0.65342563 150 0 0 0 0
4.055666 -2.6867783 -0.5564217 32 0 0 0 0
4.1931734 -2.7719877 -0.4924517 47 0 0 0 0
3.9371836 -2.6598227 -0.84432238 38 0 0 0 0
4.1940322 -2.8204844 -0.81237632 151 0 0 0 0
4.0345669 -2.7011065 -0.70037305 36 0 0 0 0
4.0717373 -2.7168016 -0.62539238 118 0 0 0 0
4.019628 -2.6739235 -0.53739715 41 0 0 0 0
4.2243557 -2.8048086 -0.48143551 37 0 0 0 0
4.0596485 -2.7542224 -0.85631853 150 0 0 0 0
4.1098375 -2.7738535 -0.7823472 139 0 0 0 0
4.0747714 -2.7388868 -0.69235992 36 0 0 0 0
4.0547571 -2.7158542 -0.60837185 15 0 0 0 0
4.0227089 -2.6858804 -0.52338028 48 0 0 0 0
4.3799329 -2.9190261 -0.48343992 150 0 0 0 0
4.063735 -2.767174 -0.84230137 150 0 0 0 0
4.0617609 -2.7520511 -0.75832236 150 0 0 0 0
4.2865219 -2.8918509 -0.71237057 57 0 0 0 0
4.0066724 -2.6930552 -0.58634859 12 0 0 0 0
4.0809717 -2.7355716 -0.51637 41 0 0 0 0
4.199419 -2.8078704 -0.44839728 47 0 0 0 0
4.337678 -2.9628575 -0.88231903 150 0 0 0 0
4.1511135 -2.8216004 -0.76031798 151 0 0 0 0
4.0678859 -2.7528632 -0.66232628 102 0 0 0 0
4.1331434 -2.7864201 -0.589351 150 0 0 0 0
4.1211629 -2.770349 -0.50636154 44 0 0 0 0
4.2085214 -2.8237953 -0.43338135 34 0 0 0 0
4.0959616 -2.804965 -0.81927699 150 0 0 0 0
4.1100402 -2.8007646 -0.73730004 150 0 0 0 0
4.0328288 -2.7360017 -0.64230925 118 0 0 0 0
4.0399008 -2.7308383 -0.56132537 41 0 0 0 0
4.1302543 -2.7842755 -0.49234876 41 0 0 0 0
4.1523905 -2.7920382 -0.41236255 28 0 0 0 0
4.0889964 -2.8069675 -0.80226386 150 0 0 0 0
4.0679622 -2.778934 -0.71428239 114 0 0 0 0
4.0720153 -2.769784 -0.63230121 85 0 0 0 0
4.003839 -2.7129822 -0.54130876 40 0 0 0 0
4.1443563 -2.8001757 -0.47733885 39 0 0 0 0
4.17452 -2.8139009 -0.39935279 56 0 0 0 0
4.2606115 -2.932127 -0.81926996 150 0 0 0 0
4.0168447 -2.7491469 -0.69026655 16 0 0 0 0
4.0941339 -2.7896483 -0.62029463 95 0 0 0 0
4.0249572 -2.732852 -0.52930105 56 0 0 0 0
4.1153135 -2.7862861 -0.45832428 26 0 0 0 0
4.2508268 -2.8714967 -0.38935143 54 0 0 0 0
4.0991316 -2.8248582 -0.77224433 63 0 0 0 0
4.3048334 -2.9517457 -0.72228962 152 0 0 0 0
4.0941825 -2.7946174 -0.60428518 118 0 0 0 0
4.0119567 -2.7278848 -0.51229167 48 0 0 0 0
4.0671954 -2.7574906 -0.4383105 19 0 0 0 0
4.311069 -2.9161713 -0.37835121 93 0 0 0 0
4.058033 -2.7990227 -0.74923432 69 0 0 0 0
4.0771284 -2.7988002 -0.66925699 110 0 0 0 0
4.0671349 -2.7797163 -0.58427459 131 0 0 0 0
4.0230341 -2.7388003 -0.49728599 53 0 0 0 0
4.0883017 -2.7743568 -0.42430741 17 0 0 0 0
4.3050952 -2.9161673 -0.36034229 39 0 0 0 0
4.1493683 -2.8645582 -0.74923843 150 0 0 0 0
3.9758315 -2.7312515 -0.63624084 63 0 0 0 0
4.0772028 -2.7886364 -0.56927091 150 0 0 0 0
4.0702267 -2.7735403 -0.48628592 79 0 0 0 0
4.2368345 -2.8786023 -0.42231873 75 0 0 0 0
4.2459292 -2.8774254 -0.33933094 21 0 0 0 0
4.1042519 -2.8347397 -0.72422987 50 0 0 0 0
4.059135 -2.7898228 -0.6332463 81 0 0 0 0
4.1645222 -2.8501856 -0.56527638 88 0 0 0 0
4.1113892 -2.8023107 -0.47528797 59 0 0 0 0
4.2298403 -2.8746035 -0.40431488 46 0 0 0 0
4.2409449 -2.8754165 -0.32132638 20 0 0 0 0
4.1594601 -2.8734453 -0.717233 51 0 0 0 0
4.0110025 -2.7570212 -0.60923886 100 0 0 0 0
4.0692263 -2.7836115 -0.53526592 42 0 0 0 0
4.0562305 -2.7645459 -0.45227996 44 0 0 0 0
4.2388945 -2.8805254 -0.38731456 31 0 0 0 0
4.2700667 -2.8952405 -0.30632806 21 0 0 0 0
4.0581436 -2.8018956 -0.68322325 63 0 0 0 0
4.0872684 -2.8076243 -0.6042484 150 0 0 0 0
4.1475096 -2.8372014 -0.52827311 43 0 0 0 0
4.0713024 -2.774441 -0.43728063 67 0 0 0 0
4.3121629 -2.9301338 -0.37632197 37 0 0 0 0
4.3694205 -2.9617183 -0.29533994 32 0 0 0 0
4.012012 -2.7690825 -0.6582182 54 0 0 0 0
4.0642061 -2.7897034 -0.58424741 150 0 0 0 0
4.0983601 -2.8014071 -0.50526923 61 0 0 0 0
4.1385388 -2.8180819 -0.42729029 66 0 0 0 0
4.2720404 -2.9002984 -0.35631931 30 0 0 0 0
4.4165926 -2.9914517 -0.2803475 20 0 0 0 0
4.0190392 -2.7700181 -0.6432234 99 0 0 0 0
4.0662251 -2.788661 -0.56724977 85 0 0 0 0
4.0752926 -2.782486 -0.48526981 74 0 0 0 0
4.2408929 -2.8855503 -0.42030418 79 0 0 0 0
4.2379336 -2.8734314 -0.33531922 26 0 0 0 0
4.4015493 -2.9774916 -0.26134965 19 0 0 0 0
4.0411201 -2.7818792 -0.62922937 90 0 0 0 0
4.1153932 -2.8183906 -0.55625975 68 0 0 0 0
4.1043925 -2.7983134 -0.47227779 45 0 0 0 0
4.2368779 -2.8775363 -0.40231022 63 0 0 0 0
4.2570066 -2.8833044 -0.31932458 25 0 0 0 0
4.4878459 -3.0320292 -0.24736461 21 0 0 0 0
4.0170388 -2.7599618 -0.60823357 94 0 0 0 0
4.068234 -2.780586 -0.53326142 58 0 0 0 0
4.0762963 -2.7734163 -0.45128182 46 0 0 0 0
4.2499223 -2.881438 -0.3853178 87 0 0 0 0
4.3051634 -2.9100342 -0.30533797 31 0 0 0 0
4.5891833 -3.0944912 -0.23338488 20 0 0 0 0
4.0631866 -2.7857068 -0.59724617 150 0 0 0 0
4.0391331 -2.7546921 -0.51126587 52 0 0 0 0
4.0732799 -2.7653992 -0.4342891 31 0 0 0 0
4.3392148 -2.9359672 -0.37533632 109 0 0 0 0
4.365356 -2.9437017 -0.2903547 30 0 0 0 0
4.6413531 -3.1231956 -0.21639971 26 0 0 0 0
4.0370846 -2.7597995 -0.57625419 108 0 0 0 0
4.0431361 -2.7506416 -0.49527526 59 0 0 0 0
4.1224351 -2.7921257 -0.42130375 25 0 0 0 0
4.1997366 -2.8336167 -0.34532979 19 0 0 0 0
4.4205279 -2.9733944 -0.27537161 20 0 0 0 0
4.6814747 -3.1419592 -0.19841585 9 0 0 0 0
4.0681758 -2.7736154 -0.56226766 52 0 0 0 0
4.164516 -2.8240185 -0.49130225 109 0 0 0 0
4.1635509 -2.8108909 -0.40732124 70 0 0 0 0
4.2338333 -2.8484156 -0.33034515 30 0 0 0 0
4.5238547 -3.0338478 -0.26239729 24 0 0 0 0
4.8379827 -3.2381427 -0.18444832 6 0 0 0 0
4.0551119 -2.755646 -0.54327863 32 0 0 0 0
4.1524572 -2.8070433 -0.47231287 57 0 0 0 0
4.2628555 -2.8683722 -0.39934689 123 0 0 0 0
4.3241129 -2.8999362 -0.31836945 44 0 0 0 0
4.6271815 -3.0942991 -0.24842285 21 0 0 0 0
6.3851428 -4.2623844 -0.21267101 13 0 0 3 0
4.0119414 -2.7158215 -0.52028835 21 0 0 0 0
4.0992527 -2.7602682 -0.44832146 32 0 0 0 0
4.2688508 -2.8623078 -0.38136166 55 0 0 0 0
4.4625397 -2.9812186 -0.3094039 22 0 0 0 0
4.6582527 -3.1031079 -0.23044382 22 0 0 0 0
4.0630751 -2.7385395 -0.50831145 17 0 0 0 0
4.1875143 -2.8088036 -0.43934801 48 0 0 0 0
4.2688169 -2.8502724 -0.36237866 46 0 0 0 0
4.4253826 -2.9443669 -0.28841582 42 0 0 0 0
4.6672435 -3.0960264 -0.21146356 8 0 0 0 0
7.512815 -4.9776368 -0.18387741 18 0 0 3 0
4.1132083 -2.7612619 -0.49633339 17 0 0 0 0
4.1884789 -2.7967644 -0.42136624 62 0 0 0 0
4.3329921 -2.8809226 -0.34940463 41 0 0 0 0
4.5186543 -2.9938686 -0.27444655 29 0 0 0 0
7.5568981 -4.9853559 -0.15291414 20 0 0 2.9651476e-42 0
4.1322265 -2.7601354 -0.48035583 27 0 0 0 0
4.1894383 -2.7837257 -0.403386 37 0 0 0 0
4.3439865 -2.8748329 -0.33142531 39 0 0 0 0
4.6259604 -3.0503006 -0.26148292 61 0 0 0 0
4.9671478 -3.2654541 -0.18154819 5 0 0 0 0
7.6049814 -4.9930544 -0.12195555 19 0 0 2.9735553e-42 0
4.3007288 -2.8582795 -0.48039925 66 0 0 0 0
4.2265153 -2.7945094 -0.38841105 42 0 0 0 0
4.5124869 -2.9709661 -0.32447174 27 0 0 0 0
4.8646898 -3.1910758 -0.25254214 74 0 0 0 0
7.6600795 -5.0037174 -0.09100052 18 0 0 2.9805618e-42 0
4.330771 -2.8620968 -0.46442688 150 0 0 0 0
4.3297977 -2.8469665 -0.37844893 49 0 0 0 0
4.5365124 -2.9708104 -0.30649835 21 0 0 0 0
4.9930491 -3.2573979 -0.23758756 22 0 0 0 0
7.6588669 -4.9878969 -0.20802134 18 0 0 2.9875683e-42 0
7.7121592 -5.0103941 -0.059048105 16 0 0 2.9889696e-42 0
4.2745328 -2.8083358 -0.43944284 17 0 0 0 0
4.353816 -2.845813 -0.3614772 39 0 0 0 0
4.7059999 -3.0639346 -0.29755044 25 0 0 0 0
5.0010114 -3.2443197 -0.21761528 44 0 0 0 0
7.726985 -5.0024948 -0.17707546 20 0 0 3 0
7.7642226 -5.0140715 -0.027100351 18 0 0 3 0
4.2684531 -2.7873306 -0.42046672 17 0 0 0 0
4.4791584 -2.9101598 -0.35252225 40 0 0 0 0
4.7079372 -3.045887 -0.27757886 21 0 0 0 0
5.1514273 -3.3215282 -0.20166942 70 0 0 0 0
7.786068 -5.0101371 -0.14612965 20 0 0 3.0043839e-42 0
7.8192906 -5.0187335 0.0038455466 19 0 0 3.0057852e-42 0
4.2904563 -2.7831869 -0.40349722 16 0 0 0 0
4.5453 -2.9337964 -0.33756116 21 0 0 0 0
4.7640476 -3.0625689 -0.25961676 6 0 0 0 0
6.8257446 -4.3751149 -0.23398997 9 0 0 3.0113904e-42 0
7.8792477 -5.0366058 -0.11419445 23 0 0 3.0127917e-42 0
7.8783593 -5.023375 0.035786785 28 0 0 3.014193e-42 0
4.4288211 -2.8524711 -0.39654979 43 0 0 0 0
4.5833492 -2.9385712 -0.32059649 21 0 0 0 0
6.7011614 -4.281889 -0.3319869 14 0 0 3.0183969e-42 0
7.331255 -4.6675282 -0.21912432 7 0 0 3.0197982e-42 0
7.9182415 -5.0263486 -0.082252815 10 0 0 3.0211995e-42 0
7.926384 -5.0190697 0.068727113 6 0 0 3.0226008e-42 0
4.4427891 -2.8413675 -0.3795816 15 0 0 0 0
4.7026496 -2.993943 -0.30864814 54 0 0 0 0
6.7702608 -4.2944913 -0.30704543 18 0 0 3.0268047e-42 0
7.907968 -4.9995785 -0.20327991 5 0 0 3.028206e-42 0
7.9271321 -4.9962435 -0.051306762 5 0 0 3.0296073e-42 0
7.9282551 -4.9850016 0.099675231 5 0 0 3.0310086e-42 0
4.5380087 -2.8808613 -0.3676298 17 0 0 0 0
4.7908359 -3.0264688 -0.29469883 77 0 0 0 0
6.8544068 -4.3160181 -0.28210762 12 0 0 3.0352125e-42 0
7.9138451 -4.9664884 -0.17133497 5 0 0 3.0366138e-42 0
7.9279957 -4.9601769 -0.018360544 5 0 0 3.0380151e-42 0
7.9391422 -4.953886 0.13161743 5 0 0 3.0394164e-42 0
4.597106 -2.8955328 -0.35267428 17 0 0 0 0
5.0716224 -3.1790349 -0.28978807 7 0 0 0 0
6.8703237 -4.2918839 -0.25416088 8 0 0 3.0436203e-42 0
7.9207125 -4.9313927 -0.13939425 5 0 0 3.0450216e-42 0
7.93887 -4.9270639 0.01157857 5 0 0 3.0464229e-42 0
7.9460139 -4.9197903 0.16355972 5 0 0 3.0478242e-42 0
4.7173848 -2.9469011 -0.34173313 17 0 0 0 0
6.9433532 -4.3216748 -0.36219776 5 0 0 3.0506268e-42 0
7.3998413 -4.5861778 -0.24231949 4 0 0 3.0520281e-42 0
7.9355998 -4.9002566 -0.10745672 6 0 0 3.0534294e-42 0
8.0029135 -4.9266796 0.043506473 30 0 0 3.0548307e-42 0
7.993001 -4.9084916 0.19549061 37 0 0 3.056232e-42 0
4.8968363 -3.032974 -0.33380708 20 0 0 0 0
7.4758468 -4.6129646 -0.35836428 8 0 0 3.0590345e-42 0
7.9714527 -4.8982539 -0.22849914 38 0 0 3.0604358e-42 0
7.9735508 -4.8820057 -0.076526068 42 0 0 3.0618371e-42 0
7.981678 -4.8717279 0.074449271 39 0 0 3.0632384e-42 0
7.9948368 -4.8674231 0.22642803 39 0 0 3.0646397e-42 0
5.1334577 -3.1527607 -0.32789522 0 0 0 0 0
7.9310822 -4.8516321 -0.34652185 36 0 0 3.0674423e-42 0
7.976294 -4.8581686 -0.19656372 42 0 0 3.0688436e-42 0
7.9793959 -4.8429165 -0.045590237 43 0 0 3.0702449e-42 0
7.9935436 -4.8366084 0.10538425 40 0 0 3.0716462e-42 0
8.00068 -4.8283362 0.2563639 39 0 0 3.0730475e-42 0
7.954915 -4.8456917 -0.46855626 40 0 0 3.0744488e-42 0
7.5276747 -4.5625896 -0.29949668 15 0 0 3.0758501e-42 0
7.9881492 -4.8210487 -0.16563182 39 0 0 3.0772514e-42 0
7.9842257 -4.8008323 -0.014657844 42 0 0 3.0786527e-42 0
7.9983764 -4.795526 0.13531822 41 0 0 3.080054e-42 0
8.0125341 -4.7912183 0.28629583 39 0 0 3.0814553e-42 0
7.967761 -4.8065658 -0.43662867 40 0 0 3.0828566e-42 0
7.9798574 -4.7902679 -0.28566733 44 0 0 3.0842579e-42 0
7.9859538 -4.7740006 -0.1346989 43 0 0 3.0856592e-42 0
7.9980788 -4.7637048 0.01527177 43 0 0 3.0870605e-42 0
8.0082169 -4.7554169 0.16624789 41 0 0 3.0884618e-42 0
8.0143518 -4.7471509 0.31622875 40 0 0 3.0898631e-42 0
7.9765973 -4.76546 -0.40469939 40 0 0 3.0912644e-42 0
7.985682 -4.747179 -0.25473759 46 0 0 2 0
7.9987984 -4.7348762 -0.10377119 43 0 0 2 0
7.9998927 -4.7186375 0.045203146 43 0 0 2 0
8.0160446 -4.7133198 0.19617689 41 0 0 2 0
8.0251894 -4.7070389 0.34615734 39 0 0 2 0
7.9814081 -4.7193747 -0.37277311 41 0 0 2 0
7.9965124 -4.7050633 -0.22281213 45 0 0 2 0
8.0026064 -4.6887989 -0.07384368 43 0 0 3.1024748e-42 0
8.003706 -4.6735606 0.075132206 44 0 0 3.1038761e-42 0
8.018856 -4.6682487 0.22510715 41 0 0 3.1052774e-42 0
8.0300016 -4.6619577 0.37508523 40 0 0 3.1066787e-42 0
7.9862108 -4.6722922 -0.3428483 41 0 0 3.10808e-42 0
8.0033293 -4.6609721 -0.19388501 46 0 0 3.1094813e-42 0
8.0194502 -4.6496558 -0.043920543 43 0 0 3.1108826e-42 0
8.0165339 -4.6314378 0.1050554 44 0 0 3.1122839e-42 0
8.024662 -4.6221633 0.25403237 41 0 0 3.1136852e-42 0
8.0378227 -4.6188626 0.4040128 39 0 0 3.1150865e-42 0
7.9970336 -4.629179 -0.31292433 41 0 0 3.1164878e-42 0
8.011137 -4.6148744 -0.16396211 46 0 0 3.1178891e-42 0
8.0262566 -4.6035652 -0.014996456 43 0 0 3.1192904e-42 0
8.0303602 -4.5893111 0.13397747 44 0 0 3.1206917e-42 0
8.0344791 -4.5780578 0.28295606 42 0 0 3.122093e-42 0
8.0446224 -4.5717735 0.43193537 40 0 0 3.1234943e-42 0
8.0128574 -4.5860395 -0.2820062 41 0 0 3.1248956e-42 0
8.0199404 -4.5677724 -0.13404197 46 0 0 3.1262969e-42 0
8.0300474 -4.5544901 0.013926502 44 0 0 3.1276982e-42 0
8.0281343 -4.5372682 0.16190284 48 0 0 3.1290995e-42 0
8.0342569 -4.5270057 0.30988064 45 0 0 3.1305008e-42 0
8.0193338 -4.5078502 0.45786917 18 0 0 3.1319021e-42 0
8.0046082 -4.5290251 -0.25308147 39 0 0 3.1333034e-42 0
8.0096903 -4.5107679 -0.10511488 48 0 0 3.1347047e-42 0
7.9877095 -4.4806514 0.040864788 5 0 0 3.136106e-42 0
8.0018415 -4.4723477 0.18883632 5 0 0 3.1375073e-42 0
8.0169897 -4.4670405 0.33681133 5 0 0 3.1389086e-42 0
8.0301418 -4.4627423 0.48479027 5 0 0 3.1403099e-42 0
7.9863348 -4.4670601 -0.22315274 5 0 0 3.1417112e-42 0
7.9944258 -4.450789 -0.076186553 5 0 0 3.1431125e-42 0
8.0075407 -4.4394941 0.069781527 5 0 0 3.1445138e-42 0
8.0216722 -4.4311929 0.21675308 5 0 0 3.1459151e-42 0
8.0287981 -4.4219275 0.36373127 6 0 0 3.1473164e-42 0
8.0419455 -4.4166293 0.51170868 6 0 0 3.1487176e-42 0
7.983089 -4.4110212 -0.19523226 5 0 0 3.1501189e-42 0
7.9972 -4.3987203 -0.048266888 8 0 0 3.1515202e-42 0
7.987247 -4.3745456 0.095708027 11 0 0 3.1529215e-42 0
7.9813209 -4.3553476 0.241686 40 0 0 3.1543228e-42 0
7.9713998 -4.3371716 0.38667017 48 0 0 3.1557241e-42 0
7.9855556 -4.3338704 0.5336495 48 0 0 3.1571254e-42 0
7.9437485 -4.336165 -0.16629899 43 0 0 3.1585267e-42 0
7.9468217 -4.3169227 -0.021331554 53 0 0 3.159928e-42 0
7.9639482 -4.3086109 0.12263653 50 0 0 3.1613293e-42 0
7.970057 -4.2963538 0.26761129 53 0 0 3.1627306e-42 0
7.9791861 -4.2880807 0.41258875 51 0 0 3.1641319e-42 0
7.9883261 -4.2818069 0.55856931 49 0 0 3.1655332e-42 0
7.9485211 -4.2840872 -0.13938159 46 0 0 3.1669345e-42 0
7.957612 -4.2688174 0.0035850327 55 0 0 3.1683358e-42 0
7.9757352 -4.2594995 0.14855042 51 0 0 3.1697371e-42 0
7.9788389 -4.2462573 0.29352716 54 0 0 3.1711384e-42 0
7.987967 -4.2379847 0.43850464 51 0 0 3.1725397e-42 0
7.9961057 -4.2317176 0.58348638 48 0 0 3.173941e-42 0
7.9623094 -4.2349639 -0.11247002 46 0 0 3.1753423e-42 0
7.9683943 -4.2187099 0.030498588 54 0 0 3.1767436e-42 0
7.9795017 -4.206429 0.17446755 51 0 0 3.1781449e-42 0
7.9916291 -4.1981425 0.31844151 52 0 0 3.1795462e-42 0
7.9907312 -4.1849227 0.46242294 49 0 0 3.1809475e-42 0
8.001874 -4.1796398 0.60740274 47 0 0 3.1823488e-42 0
7.9660754 -4.1818933 -0.086552881 46 0 0 3.1837501e-42 0
7.9721594 -4.1656413 0.055415753 53 0 0 3.1851514e-42 0
7.9832668 -4.1533599 0.19938472 51 0 0 3.1865527e-42 0
7.9963932 -4.1450686 0.34335756 51 0 0 3.187954e-42 0
8.003521 -4.1368079 0.48733741 49 0 0 3.1893553e-42 0
8.0176697 -4.1325097 0.63231522 45 0 0 3.1907566e-42 0
7.9708304 -4.1268196 -0.061639935 46 0 0 3.1921579e-42 0
7.9849396 -4.1155257 0.080327094 52 0 0 3.1935592e-42 0
8.030138 -4.1210718 0.22428422 42 0 0 3.1949605e-42 0
8.0733471 -4.1286244 0.37024677 44 0 0 3.1963618e-42 0
8.1245899 -4.1421332 0.51820928 43 0 0 3.1977631e-42 0
8.1698294 -4.1546712 0.6671772 41 0 0 3.1991644e-42 0
8.0628176 -4.1173015 -0.036757372 39 0 0 3.2005657e-42 0
8.1340704 -4.1337152 0.10718645 46 0 0 3.201967e-42 0
8.1913023 -4.1451945 0.25413886 44 0 0 3.2033683e-42 0
8.2284985 -4.1497769 0.40110382 45 0 0 3.2047696e-42 0
8.2777338 -4.1612921 0.55106562 44 0 0 3.2061709e-42 0
8.3179607 -4.1708531 0.70203477 41 0 0 3.2075722e-42 0
8.228981 -4.1424079 -0.012906882 41 0 0 3.2089735e-42 0
8.3012428 -4.159812 0.13403738 46 0 0 3.2103748e-42 0
8.3474464 -4.1653447 0.28299344 45 0 0 3.2117761e-42 0
8.3966675 -4.1738591 0.4339506 46 0 0 3.2131774e-42 0
8.4318724 -4.1794448 0.58491951 45 0 0 3.2145787e-42 0
8.4700918 -4.1870127 0.73788798 40 0 0 3.21598e-42 0
8.39112 -4.1625333 0.011940766 42 0 0 3.2173813e-42 0
8.4573641 -4.1759648 0.16088589 46 0 0 3.2187826e-42 0
8.5125914 -4.1854467 0.31283769 45 0 0 3.2201839e-42 0
8.5547991 -4.1909938 0.46579844 48 0 0 3.2215852e-42 0
8.5960178 -4.198544 0.61976343 44 0 0 3.2229865e-42 0
8.637249 -4.2080932 0.77473152 41 0 0 3.2243878e-42 0
8.5542498 -4.1806531 0.036784381 41 0 0 3.2257891e-42 0
8.6184921 -4.1930895 0.18873034 46 0 0 3.2271904e-42 0
8.7880096 -4.2579799 0.34763587 4 0 0 3.2285917e-42 0
8.8442535 -4.2694488 0.50458962 5 0 0 3.229993e-42 0
8.8042622 -4.2364159 0.65658569 34 0 0 3.2313943e-42 0
8.8224344 -4.2340789 0.81356215 39 0 0 3.2327956e-42 0
8.8877916 -4.2789025 0.06355536 5 0 0 3.2341969e-42 0
8.955039 -4.291316 0.22049789 5 0 0 3.2355982e-42 0
9.0162859 -4.3027549 0.3804459 5 0 0 3.2369995e-42 0
8.9993496 -4.2795978 0.5364306 2 0 0 3.2384008e-42 0
8.98242 -4.2574396 0.69341695 37 0 0 3.239802e-42 0
9.0116205 -4.2600417 0.85338831 40 0 0 3.2412033e-42 0
9.0689259 -4.2979274 0.089380115 5 0 0 3.2426046e-42 0
9.1341734 -4.3093467 0.24932349 8 0 0 3.2440059e-42 0
9.1894054 -4.3178129 0.41127393 9 0 0 3.2454072e-42 0
9.2055521 -4.3094802 0.57224345 5 0 0 3.2468085e-42 0
9.177599 -4.2823753 0.73123479 36 0 0 3.2482098e-42 0
9.1937666 -4.2780404 0.89321053 40 0 0 3.2496111e-42 0
9.179884 -4.2823091 0.1152325 13 0 0 3.2510124e-42 0
9.2611628 -4.2996435 0.2771666 2 0 0 3.2524137e-42 0
9.5248995 -4.4040318 0.45002487 4 0 0 3.253815e-42 0
9.3245182 -4.2948151 0.60208821 31 0 0 3.2552163e-42 0
9.3446894 -4.2904572 0.76605922 41 0 0 3.2566176e-42 0
9.3919382 -4.3009572 0.93302214 37 0 0 3.2580189e-42 0
9.6476736 -4.4278669 0.14592268 4 0 0 3.2594202e-42 0
9.718935 -4.4402413 0.31486073 4 0 0 3.2608215e-42 0
9.7260494 -4.4239421 0.48382849 4 0 0 3.2622228e-42 0
9.5076323 -4.3078179 0.63590181 39 0 0 3.2636241e-42 0
9.5598831 -4.3182888 0.80485886 44 0 0 3.2650254e-42 0
9.591094 -4.3208671 0.97382802 37 0 0 3.2664267e-42 0
9.8708572 -4.4556727 0.17371339 2 0 0 3.267828e-42 0
9.9441214 -4.4680324 0.34564921 3 0 0 2 0
9.8249416 -4.3953829 0.51067537 2 0 0 2 0
9.7278242 -4.3356256 0.67269605 39 0 0 2 0
9.7880964 -4.3490491 0.84564853 41 0 0 2 0
9.8724327 -4.3743429 1.0235916 19 0 0 2 0
10.114072 -4.4893751 0.20249046 5 0 0 2 0
10.191345 -4.502708 0.37842327 7 0 0 2 0
9.9298401 -4.3677926 0.53751707 20 0 0 3.2790384e-42 0
9.9349651 -4.3535004 0.70849025 38 0 0 3.2804397e-42 0
9.9982395 -4.3669047 0.88443929 37 0 0 3.281841e-42 0
10.268015 -4.472218 1.0852927 3 0 0 3.2832423e-42 0
10.241999 -4.467669 0.22831492 13 0 0 3.2846436e-42 0
10.26114 -4.4552994 0.40327498 8 0 0 3.2860449e-42 0
10.116909 -4.372776 0.56931466 39 0 0 3.2874462e-42 0
10.178169 -4.3831892 0.74626148 43 0 0 3.2888475e-42 0
10.24646 -4.3985596 0.92720783 32 0 0 3.2902488e-42 0
10.71669 -4.5868101 1.1539589 2 0 0 3.2916501e-42 0
10.602429 -4.5427675 0.26002169 2 0 0 3.2930514e-42 0
10.530368 -4.4908609 0.43602565 3 0 0 3.2944527e-42 0
10.365106 -4.4014411 0.60507882 40 0 0 3.295854e-42 0
10.435386 -4.4148016 0.78601986 39 0 0 3.2972553e-42 0
10.54176 -4.4449668 0.97394538 18 0 0 3.2986566e-42 0
11.00396 -4.6262517 1.2046953 2 0 0 3.3000579e-42 0
10.861619 -4.5713863 0.28877348 2 0 0 3.3014592e-42 0
10.667291 -4.4681063 0.46283868 9 0 0 3.3028605e-42 0
10.640346 -4.4379659 0.64182431 40 0 0 3.3042618e-42 0
10.694588 -4.4434032 0.82577169 38 0 0 3.3056631e-42 0
11.109648 -4.5999436 1.0465378 5 0 0 3.3070644e-42 0
11.283195 -4.6587343 1.2554305 17 0 0 2 0
11.182917 -4.6206841 0.31948623 7 0 0 2 0
10.84228 -4.4581561 0.49062797 34 0 0 2 0
10.90353 -4.4645529 0.67756873 44 0 0 2 0
10.987841 -4.4818273 0.86749989 35 0 0 2 0
11.306685 -4.5968642 1.0843127 9 0 0 2 0
11.359958 -4.6052856 1.2822659 2 0 0 2 0
11.246647 -4.5613074 0.34232742 9 0 0 3.3182748e-42 0
11.105457 -4.4837484 0.52237111 38 0 0 3.3196761e-42 0
11.211802 -4.5069041 0.71628618 36 0 0 3.3210774e-42 0
11.311143 -4.5290933 0.91220772 20 0 0 3.3224787e-42 0
11.855466 -4.7309361 1.1568959 8 0 0 3.32388e-42 0
11.922771 -4.7432694 1.3648392 8 0 0 3.3252813e-42 0
11.519799 -4.5828524 0.37105325 6 0 0 3.3266826e-42 0
11.430724 -4.5260167 0.55806917 42 0 0 3.3280839e-42 0
11.529053 -4.5452094 0.75498736 39 0 0 3.3294852e-42 0
11.878927 -4.6650772 0.97777241 7 0 0 3.3308864e-42 0
11.960253 -4.6813416 1.1847055 8 0 0 3.3322877e-42 0
11.987472 -4.677886 1.3886706 6 0 0 3.333689e-42 0
11.713771 -4.5698061 0.39681697 21 0 0 3.3350903e-42 0
11.685829 -4.5376492 0.58980078 21 0 0 3.3364916e-42 0
11.839273 -4.577548 0.79468787 36 0 0 3.3378929e-42 0
12.047845 -4.6401491 1.0095468 61 0 0 3.3392942e-42 0
12.065026 -4.6297483 1.2115126 60 0 0 3.3406955e-42 0
12.085232 -4.6233273 1.416481 40 0 0 3.3420968e-42 0
11.979877 -4.5823874 0.42453784 49 0 0 3.3434981e-42 0
12.082201 -4.5995502 0.6274485 52 0 0 3.3448994e-42 0
12.197561 -4.6226387 0.83535343 47 0 0 3.3463007e-42 0
12.272857 -4.6329293 1.0442845 45 0 0 2 0
12.350171 -4.6462064 1.256218 43 0 0 2 0
12.441527 -4.6664028 1.4731458 41 0 0 2 0
12.323112 -4.6195698 0.45520863 51 0 0 2 0
12.441464 -4.6406393 0.66510713 51 0 0 2 0
12.560836 -4.6646991 0.87800902 45 0 0 2 0
12.660181 -4.6828566 1.0939248 44 0 0 2 0
14.306662 -5.2728534 1.4759511 45 0 0 3.3575111e-42 0
13.940106 -5.1214247 1.670139 41 0 0 3.3589124e-42 0
13.833576 -5.0787144 0.53219426 37 0 0 3.3603137e-42 0
14.005044 -5.1164727 0.76805788 42 0 0 3.361715e-42 0
13.749694 -5.0004482 0.98017299 42 0 0 3.3631163e-42 0
14.321976 -5.1870947 1.2568076 45 0 0 3.3645176e-42 0
14.437388 -5.2111197 1.5057144 42 0 0 3.3659189e-42 0
13.98868 -5.0321269 1.6899537 41 0 0 3.3673202e-42 0
13.507437 -4.8543539 0.53722936 38 0 0 3.3687215e-42 0
14.442349 -5.1641517 0.81063908 45 0 0 3.3701228e-42 0
13.741154 -4.89045 0.99502105 41 0 0 3.3715241e-42 0
14.000813 -4.962738 1.2428372 37 0 0 3.3729254e-42 0
13.868731 -4.8980765 1.4598904 43 0 0 3.3743267e-42 0
14.000171 -4.9280257 1.704788 41 0 0 3.375728e-42 0
13.690262 -4.8133645 0.55996478 48 0 0 3.3771293e-42 0
14.848559 -5.1939931 0.85022885 45 0 0 3.3785306e-42 0
13.841829 -4.8208818 1.0168066 52 0 0 3.3799319e-42 0
14.450132 -5.0103369 1.297405 40 0 0 3.3813332e-42 0
13.877219 -4.7939944 1.4727283 56 0 0 3.3827345e-42 0
13.914476 -4.7914429 1.7056834 42 0 0 3.3841358e-42 0
13.884091 -4.7733192 0.58268946 39 0 0 3.3855371e-42 0
13.782047 -4.7155013 0.80171871 41 0 0 3.3869384e-42 0
14.29614 -4.8684669 1.0633688 47 0 0 3.3883397e-42 0
13.755298 -4.6639485 1.2466732 42 0 0 3.389741e-42 0
14.510881 -4.9026093 1.5531797 41 0 0 3.3911423e-42 0
14.124347 -4.7562938 1.7423977 47 0 0 3.3925436e-42 0
14.183104 -4.7677288 0.60934711 52 0 0 3.3939449e-42 0
14.060019 -4.7020159 0.83038825 44 0 0 3.3953462e-42 0
13.923922 -4.6343775 1.0464412 42 0 0 3.3967475e-42 0
13.74876 -4.5559483 1.2565221 41 0 0 3.3981488e-42 0
14.18573 -4.6832938 1.5272212 42 0 0 3.3995501e-42 0
14.16087 -4.6590662 1.756214 40 0 0 3.4009514e-42 0
14.347843 -4.7108355 0.6290797 50 0 0 3.4023527e-42 0
14.291888 -4.6687708 0.8550806 47 0 0 3.403754e-42 0
14.023563 -4.5588207 1.0642192 44 0 0 3.4051553e-42 0
13.844405 -4.4814119 1.2743063 54 0 0 3.4065566e-42 0
13.934738 -4.4935875 1.5082238 51 0 0 3.4079579e-42 0
14.447844 -4.6425109 1.7998695 42 0 0 3.4093592e-42 0
14.934304 -4.7897549 0.66654068 47 0 0 3.4107605e-42 0
14.63193 -4.6679621 0.88669991 47 0 0 3.4121618e-42 0
14.187319 -4.5049286 1.0859579 45 0 0 3.4135631e-42 0
14.351769 -4.5377097 1.3298225 46 0 0 3.4149644e-42 0
14.274805 -4.4947581 1.5528461 43 0 0 3.4163657e-42 0
14.433276 -4.5295577 1.8047208 42 0 0 3.417767e-42 0
14.913706 -4.6698256 0.6753884 54 0 0 3.4191683e-42 0
14.51819 -4.522522 0.88761431 55 0 0 3.4205696e-42 0
14.579445 -4.5188413 1.1245408 45 0 0 3.4219708e-42 0
14.602653 -4.5063577 1.360497 47 0 0 3.4233721e-42 0
14.563763 -4.4762006 1.5904967 42 0 0 3.4247734e-42 0
14.381634 -4.4038053 1.8025947 38 0 0 3 0
14.931163 -4.5607028 0.68320936 46 0 0 3 0
14.948336 -4.5412469 0.92116189 50 0 0 3 0
14.674049 -4.4373169 1.1373163 61 0 0 3 0
14.532979 -4.3746972 1.3583823 43 0 0 3 0
14.64634 -4.3897362 1.6042784 46 0 0 3 0
14.335005 -4.2810273 1.8004675 43 0 0 3 0
15.34726 -4.5715084 0.70976126 47 0 0 3.4359838e-42 0
14.984834 -4.4400249 0.92997354 46 0 0 3.4373851e-42 0
14.227763 -4.1936297 1.1064582 44 0 0 3.4387864e-42 0
14.246958 -4.1801777 1.3354174 42 0 0 3.4401877e-42 0
14.520576 -4.2423768 1.5932037 42 0 0 3.441589e-42 0
14.647972 -4.2633395 1.8420926 42 0 0 3.4429903e-42 0
14.820844 -4.3002152 0.68995219 48 0 0 3.4443916e-42 0
15.127467 -4.364253 0.94270378 52 0 0 3.4457929e-42 0
14.567747 -4.1818204 1.1370618 49 0 0 3.4471942e-42 0
14.251411 -4.0721302 1.3382548 44 0 0 3.4485955e-42 0
14.493969 -4.1234946 1.5920597 44 0 0 3.4499968e-42 0
14.694475 -4.1640701 1.8488963 54 0 0 3.4513981e-42 0
14.887372 -4.2058434 0.6957404 47 0 0 3.4527994e-42 0
14.698235 -4.1294699 0.91783994 64 0 0 3.4542007e-42 0
14.630286 -4.0894685 1.1438576 41 0 0 3.455602e-42 0
14.422127 -4.0112076 1.3559759 47 0 0 3.4570033e-42 0
14.347182 -3.9732516 1.5760044 42 0 0 3.4584046e-42 0
14.827123 -4.090344 1.865641 46 0 0 3.4598059e-42 0
14.515251 -3.9907551 0.6798417 49 0 0 3.4612072e-42 0
15.017139 -4.1047816 0.93844861 32 0 0 3.4626085e-42 0
14.70283 -3.9980669 1.1496437 43 0 0 3.4640098e-42 0
14.362483 -3.8865039 1.3488607 41 0 0 3.4654111e-42 0
14.349636 -3.8662207 1.5748459 45 0 0 3.4668124e-42 0
14.725392 -3.9508684 1.8505512 40 0 0 3.4682137e-42 0
14.456608 -3.8650382 0.67772394 56 0 0 3.469615e-42 0
15.385089 -4.0878367 0.96201408 61 0 0 3.4710163e-42 0
15.276098 -4.0380373 1.1940632 38 0 0 3.4724176e-42 0
14.779545 -3.8882868 1.3863988 49 0 0 3.4738189e-42 0
14.822783 -3.8816977 1.6243415 47 0 0 3.4752202e-42 0
15.335738 -3.9996042 1.9239427 21 0 0 3.4766215e-42 0
14.420999 -3.7462051 0.67459077 41 0 0 3.4780228e-42 0
14.6705 -3.7895544 0.91437608 54 0 0 3.4794241e-42 0
14.716722 -3.7809589 1.1463125 41 0 0 3.4808254e-42 0
14.605727 -3.7331884 1.366367 43 0 0 3.4822267e-42 0
14.751113 -3.7530632 1.6122344 45 0 0 3.483628e-42 0
54.027561 -13.680539 6.8139439 81 0 0 3.4850293e-42 0
14.675789 -3.7018633 0.68324262 42 0 0 3.4864306e-42 0
15.022418 -3.7676988 0.93295264 44 0 0 3.4878319e-42 0
14.699128 -3.666038 1.140165 47 0 0 3.4892332e-42 0
14.632198 -3.6300368 1.3631877 40 0 0 3.4906345e-42 0
15.046958 -3.7154832 1.6388507 26 0 0 3.4920358e-42 0
53.637917 -13.180576 6.7406516 37 0 0 3.4934371e-42 0
14.68824 -3.5947833 0.68007326 51 0 0 3.4948384e-42 0
14.509148 -3.5293705 0.89517772 41 0 0 3.4962397e-42 0
14.831741 -3.5883288 1.1449047 49 0 0 3.497641e-42 0
14.580563 -3.5082986 1.3520683 47 0 0 3.4990423e-42 0
53.631153 -12.833882 5.8671541 46 0 0 3.5004436e-42 0
53.739979 -12.804003 6.7229915 37 0 0 3.5018449e-42 0
14.412322 -3.4202096 0.66012704 61 0 0 3.5032462e-42 0
14.573681 -3.4380231 0.89197361 49 0 0 3.5046475e-42 0
15.470005 -3.6279652 1.1872522 52 0 0 3.5060488e-42 0
14.574997 -3.3993189 1.3439165 27 0 0 1 0
53.651134 -12.44475 5.8375673 40 0 0 3.5088514e-42 0
53.824039 -12.428532 6.7003541 37 0 0 3.5102527e-42 0
14.933421 -3.4334855 0.67756671 60 0 0 3.511654e-42 0
14.359851 -3.2811329 0.87098402 55 0 0 3.5130553e-42 0
14.766519 -3.3536544 1.1236371 42 0 0 3.5144565e-42 0
16.9645 -3.8316972 1.5568858 12 0 0 3.5158578e-42 0
17.950968 -4.0330601 1.9270811 0 0 0 3.5172591e-42 0
53.903072 -12.050095 6.6707187 38 0 0 3 0
15.177147 -3.3782094 0.67921573 46 0 0 3 0
15.045135 -3.3265419 0.90328777 44 0 0 3 0
14.573714 -3.2026625 1.0986328 30 0 0 3 0
16.673485 -3.64323 1.5169367 18 0 0 3 0
16.482437 -3.5818443 1.7550606 4 0 0 3 0
53.661682 -11.600375 6.5953364 68 0 0 3 0
15.207595 -3.2720463 0.67002767 26 0 0 3.5284695e-42 0
15.526126 -3.3190229 0.92074168 28 0 0 3.5298708e-42 0
14.721335 -3.1278844 1.0983602 4 0 0 1 0
17.003241 -3.5904875 1.5334932 11 0 0 3.5326734e-42 0
16.68605 -3.5037656 1.7617209 8 0 0 1 0
54.282375 -11.336076 6.6202626 77 0 0 3.535476e-42 0
15.016794 -3.1210392 0.64802146 9 0 0 1 0
19.12464 -3.9471936 1.1216503 11 0 0 3.5382786e-42 0
17.607098 -3.6117177 1.3008524 13 0 0 3.5396799e-42 0
17.145754 -3.4957373 1.5291978 12 0 0 3.5410812e-42 0
54.245586 -10.991576 5.7198033 79 0 0 3.5424825e-42 0
16.510408 -3.3303058 1.9816664 4 0 0 3.5438838e-42 0
19.279882 -3.8658338 0.81936008 3 0 0 3.5452851e-42 0
19.087864 -3.8003862 1.1014791 4 0 0 3.5466864e-42 0
54.14212 -10.700705 3.9844947 87 0 0 3.5480877e-42 0
17.484474 -3.4369519 1.5417367 6 0 0 3.549489e-42 0
