# .PCD v0.7 - Point Cloud Data file format
VERSION 0.7
FIELDS x y z intensity normal_x normal_y normal_z curvature
SIZE 4 4 4 4 4 4 4 4
TYPE F F F F F F F F
COUNT 1 1 1 1 1 1 1 1
WIDTH 917
HEIGHT 1
VIEWPOINT 0 0 0 1 0 0 0
POINTS 917
DATA ascii
2.9113798 -0.43801528 -1.4392153 6 0 0 2 0
3.0806775 -0.46205971 -1.4470248 7 0 0 2 0
2.3243418 -0.35681129 -1.3888748 5 0 0 2 0
2.4736285 -0.3790825 -1.4057072 5 0 0 2 0
2.6198845 -0.39939171 -1.4155424 6 0 0 2 0
2.7721603 -0.42163244 -1.4233712 6 0 0 2 0
2.9605176 -0.44945139 -1.4431599 6 0 0 2 0
3.1338372 -0.47544974 -1.4499656 7 0 0 1.1012805e-41 0
2.3644698 -0.36735162 -1.3938295 5 0 0 1.1014206e-41 0
2.5057268 -0.38771796 -1.4046706 6 0 0 1.1015607e-41 0
2.6620097 -0.40990952 -1.4184948 6 0 0 1.1017009e-41 0
2.8253131 -0.43402103 -1.4303116 6 0 0 1.101841e-41 0
3.002651 -0.46097013 -1.4431129 7 0 0 1.1019811e-41 0
3.1879976 -0.48882771 -1.4539051 7 0 0 1.1021212e-41 0
2.3995702 -0.37595162 -1.3947893 5 0 0 2 0
2.5528555 -0.3981767 -1.4106171 8 0 0 2 0
2.7091491 -0.42136845 -1.4234416 6 0 0 2 0
2.8814769 -0.44737473 -1.4372486 6 0 0 2 0
3.0638156 -0.4742654 -1.4510441 7 0 0 2 0
3.2511714 -0.50310051 -1.4598345 7 0 0 2 0
2.4396844 -0.38549259 -1.3977438 5 0 0 2 0
2.5939698 -0.40770599 -1.4135703 6 0 0 1.1032423e-41 0
2.7653027 -0.43372172 -1.4313784 6 0 0 1.1033824e-41 0
2.928602 -0.45783421 -1.4401952 7 0 0 1.1035225e-41 0
3.1119502 -0.48571396 -1.45199 7 0 0 1.1036627e-41 0
3.3113317 -0.51640868 -1.4637669 8 0 0 1.1038028e-41 0
2.4818006 -0.39500961 -1.4026957 5 0 0 1.1039429e-41 0
2.6350811 -0.41723624 -1.4145235 6 0 0 1.1040831e-41 0
2.8124287 -0.44418094 -1.435325 6 0 0 1.1042232e-41 0
2.9817512 -0.47022381 -1.4441355 7 0 0 1.1043633e-41 0
3.1721113 -0.49902195 -1.4569224 7 0 0 1.1045034e-41 0
3.3724918 -0.52970535 -1.4676982 8 0 0 1.1046436e-41 0
2.5319314 -0.40543261 -1.4106387 5 0 0 1.1047837e-41 0
2.6822202 -0.42869502 -1.4194704 6 0 0 1.1049238e-41 0
2.8665802 -0.45655814 -1.441264 6 0 0 1.105064e-41 0
3.0358887 -0.4816018 -1.4480742 7 0 0 1.1052041e-41 0
3.229259 -0.51136541 -1.4598579 7 0 0 1.1053442e-41 0
3.4436781 -0.54488474 -1.4746184 8 0 0 1.1054844e-41 0
2.5640147 -0.41306934 -1.4066015 5 0 0 1.1056245e-41 0
2.7333488 -0.43910709 -1.4254123 6 0 0 1.1057646e-41 0
2.9167039 -0.46698344 -1.443207 6 0 0 1.1059047e-41 0
3.0860229 -0.49302727 -1.4490175 7 0 0 1.1060449e-41 0
3.2964342 -0.52559119 -1.4667825 8 0 0 1.106185e-41 0
3.5178754 -0.56102926 -1.4815356 8 0 0 1.1063251e-41 0
2.6151557 -0.42448097 -1.4135438 6 0 0 1.1064653e-41 0
2.7864873 -0.45049635 -1.430352 6 0 0 1.1066054e-41 0
2.9718542 -0.47934926 -1.4481449 7 0 0 1.1067455e-41 0
3.1511862 -0.50627637 -1.4559441 8 0 0 1.1068857e-41 0
3.3525782 -0.53794742 -1.4667193 8 0 0 1.1070258e-41 0
3.5950613 -0.57613897 -1.4884487 8 0 0 1.1071659e-41 0
2.6632705 -0.43392867 -1.4174886 6 0 0 1.107306e-41 0
2.8386135 -0.46089759 -1.4342926 7 0 0 1.1074462e-41 0
3.025979 -0.48972762 -1.4510832 6 0 0 1.1075863e-41 0
3.2163486 -0.51952571 -1.4618706 8 0 0 1.1077264e-41 0
3.4327803 -0.55402058 -1.4776293 8 0 0 1.1078666e-41 0
3.6732588 -0.59223688 -1.4953612 9 0 0 1.1080067e-41 0
2.7083828 -0.44341192 -1.4194371 6 0 0 1.1081468e-41 0
2.8957531 -0.47223985 -1.4402277 7 0 0 1.108287e-41 0
3.0851278 -0.50204748 -1.4550164 7 0 0 1.1084271e-41 0
3.2845106 -0.53274024 -1.4677936 9 0 0 1.1085672e-41 0
3.5119672 -0.56910664 -1.48554 8 0 0 1.1087073e-41 0
3.7654819 -0.61017126 -1.5052578 9 0 0 1.1088475e-41 0
2.76351 -0.45377797 -1.424374 6 0 0 1.1089876e-41 0
2.9548917 -0.48355937 -1.4451604 7 0 0 1.1091277e-41 0
3.1472776 -0.514332 -1.4599459 7 0 0 1.1092679e-41 0
3.3456571 -0.54503751 -1.4697244 9 0 0 1.109408e-41 0
3.5921645 -0.58518136 -1.4924501 9 0 0 1.1095481e-41 0
3.8426633 -0.62528223 -1.5081711 9 0 0 1.1096883e-41 0
2.8236635 -0.46608451 -1.4323061 6 0 0 1.1098284e-41 0
3.0120289 -0.49490234 -1.4490955 7 0 0 1.1099685e-41 0
3.2154281 -0.52654642 -1.4658685 7 0 0 1.1101086e-41 0
3.4228439 -0.56014663 -1.4776375 8 0 0 1.1102488e-41 0
3.6623218 -0.59837407 -1.4943707 9 0 0 1.1103889e-41 0
3.9328716 -0.6422407 -1.5150697 9 0 0 1.110529e-41 0
2.8858039 -0.47736838 -1.4392352 7 0 0 1.1106692e-41 0
3.0751801 -0.50717473 -1.455024 7 0 0 1.1108093e-41 0
3.2825892 -0.53977275 -1.4707927 8 0 0 1.1109494e-41 0
3.4960048 -0.57330328 -1.4825546 8 0 0 1.1110896e-41 0
3.7585356 -0.61526096 -1.5062623 9 0 0 1.1112297e-41 0
4.0310931 -0.66010553 -1.5239595 10 0 0 1.1113698e-41 0
2.94293 -0.48771128 -1.4431698 7 0 0 1.1115099e-41 0
3.1363158 -0.51847166 -1.4579544 8 0 0 1.1116501e-41 0
3.341723 -0.55109352 -1.4717253 8 0 0 1.1117902e-41 0
3.5801928 -0.58833063 -1.4914594 9 0 0 1.1119303e-41 0
3.8467324 -0.63124257 -1.513163 9 0 0 1.1120705e-41 0
4.1313138 -0.6779474 -1.5318466 10 0 0 1.1122106e-41 0
3.0080702 -0.49896017 -1.4500955 7 0 0 1.1123507e-41 0
3.2064676 -0.53066236 -1.4648745 7 0 0 1.1124909e-41 0
3.4198856 -0.5641914 -1.4786366 8 0 0 1.112631e-41 0
3.6673906 -0.60432339 -1.4993612 9 0 0 1.1127711e-41 0
3.9329257 -0.64724845 -1.5170659 9 0 0 1.1129112e-41 0
4.2465596 -0.69761407 -1.542717 10 0 0 1.1130514e-41 0
3.0631928 -0.50932735 -1.4510326 7 0 0 1.1131915e-41 0
3.2696023 -0.54193628 -1.4668025 8 0 0 1.1133316e-41 0
3.5080745 -0.5791719 -1.4885367 8 0 0 1.1134718e-41 0
3.7615895 -0.62023461 -1.5082548 9 0 0 1.1136119e-41 0
4.0321345 -0.6641019 -1.524954 10 0 0 1.113752e-41 0
4.3537898 -0.71637493 -1.5495963 11 0 0 1.1138921e-41 0
3.1353457 -0.52149445 -1.4589503 7 0 0 1.1140323e-41 0
3.3437526 -0.55408084 -1.4727179 9 0 0 1.1141724e-41 0
3.5912497 -0.593211 -1.4964422 9 0 0 1.1143125e-41 0
3.8477612 -0.63424009 -1.5131568 9 0 0 1.1144527e-41 0
4.1363549 -0.68189716 -1.5328364 10 0 0 1.1145928e-41 0
4.4790597 -0.73792475 -1.5614558 11 0 0 1.1147329e-41 0
3.2064846 -0.53267384 -1.4648689 7 0 0 1.1148731e-41 0
3.4199028 -0.5662021 -1.4786311 9 0 0 1.1150132e-41 0
3.677434 -0.60821605 -1.5023448 9 0 0 1.1151533e-41 0
3.9309306 -0.6482811 -1.5160626 9 0 0 1.1152934e-41 0
4.254602 -0.70152825 -1.5447032 11 0 0 1.1154336e-41 0
4.5993023 -0.75753421 -1.5693203 11 0 0 1.1155737e-41 0
3.2756212 -0.54387718 -1.4687897 7 0 0 1.1157138e-41 0
3.4970634 -0.57931209 -1.4835434 9 0 0 1.115854e-41 0
3.7676077 -0.62217426 -1.5092422 9 0 0 1.1159941e-41 0
4.0431666 -0.6669817 -1.5279361 10 0 0 1.1161342e-41 0
4.3658218 -0.71924204 -1.5525775 11 0 0 1.1162744e-41 0
4.7285581 -0.77803808 -1.5791746 12 0 0 1.1164145e-41 0
3.3377433 -0.5541628 -1.4697186 8 0 0 1.1165546e-41 0
3.5872393 -0.59326941 -1.4924407 10 0 0 1.1166947e-41 0
3.8617938 -0.63708532 -1.5171353 9 0 0 1.1168349e-41 0
4.1453614 -0.68280083 -1.53382 11 0 0 1.116975e-41 0
4.4970798 -0.73972201 -1.5644293 11 0 0 1.1171151e-41 0
4.8708377 -0.80039072 -1.5900142 12 0 0 1.1172553e-41 0
3.4208944 -0.56620234 -1.4766234 8 0 0 1.1173954e-41 0
3.6824276 -0.60816807 -1.5023326 10 0 0 1.1175355e-41 0
3.9589789 -0.65196198 -1.5240248 9 0 0 1.1176757e-41 0
4.2605834 -0.70046723 -1.5436896 11 0 0 1.1178158e-41 0
4.6173105 -0.758331 -1.5722934 11 0 0 1.1179559e-41 0
5.0281439 -0.82456732 -1.6048371 13 0 0 1.118096e-41 0
3.5050581 -0.57922959 -1.4845273 8 0 0 1.1182362e-41 0
3.77159 -0.62113756 -1.5092306 10 0 0 1.1183763e-41 0
4.0581617 -0.66681576 -1.529912 10 0 0 1.1185164e-41 0
4.3868194 -0.71900457 -1.5565466 11 0 0 1.1186566e-41 0
4.746541 -0.77683556 -1.5801468 11 0 0 1.1187967e-41 0
5.1814337 -0.84779191 -1.6156642 13 0 0 1.1189368e-41 0
3.5942214 -0.59219867 -1.4924254 8 0 0 1.119077e-41 0
3.8677633 -0.6350258 -1.5161209 10 0 0 1.1192171e-41 0
4.1683612 -0.68254006 -1.5397866 11 0 0 1.1193572e-41 0
4.5090513 -0.73758978 -1.5654082 11 0 0 1.1194973e-41 0
4.8938222 -0.79912883 -1.5929806 12 0 0 1.1196375e-41 0
5.3597755 -0.87472361 -1.6324635 13 0 0 1.1197776e-41 0
3.6823721 -0.60417974 -1.4993243 9 0 0 1.1199177e-41 0
3.9649367 -0.64890224 -1.52301 10 0 0 1.1200579e-41 0
4.2855716 -0.69918293 -1.5496533 11 0 0 1.120198e-41 0
4.6322594 -0.7541638 -1.5732678 11 0 0 1.1203381e-41 0
5.0561295 -0.8232466 -1.6087976 13 0 0 1.1204783e-41 0
5.5210609 -0.89785624 -1.6402812 13 0 0 1.1206184e-41 0
3.7905748 -0.61992598 -1.5122012 9 0 0 1.1207585e-41 0
4.0681095 -0.66270888 -1.5298921 11 0 0 1.1208986e-41 0
4.4057803 -0.71579129 -1.5585164 11 0 0 1.1210388e-41 0
4.7604885 -0.77267987 -1.5801224 12 0 0 1.1211789e-41 0
5.2254224 -0.84628391 -1.6226056 13 0 0 1.121319e-41 0
5.7144132 -0.92561382 -1.6560632 13 0 0 1.1214592e-41 0
3.8847239 -0.63183755 -1.518093 9 0 0 1.1215993e-41 0
4.1782947 -0.67743373 -1.5377661 11 0 0 1.1217394e-41 0
4.5400152 -0.73423576 -1.5703639 12 0 0 1.1218796e-41 0
4.9267859 -0.79575026 -1.5979341 13 0 0 1.1220197e-41 0
5.3856993 -0.86842698 -1.6324241 13 0 0 1.1221598e-41 0
5.9318023 -0.95609105 -1.6758181 13 0 0 1.1222999e-41 0
3.9878981 -0.64564365 -1.525975 9 0 0 1.1224401e-41 0
4.2984929 -0.69304156 -1.5476289 11 0 0 1.1225802e-41 0
4.6702352 -0.75172764 -1.5792158 11 0 0 1.1227203e-41 0
5.0820417 -0.81595105 -1.6087576 13 0 0 1.1228605e-41 0
5.565002 -0.89234811 -1.645221 13 0 0 1.1230006e-41 0
6.1391497 -0.98368698 -1.6885835 13 0 0 1.1231407e-41 0
4.0860448 -0.65750939 -1.529862 10 0 0 1.1232808e-41 0
4.4277172 -0.71054375 -1.5594819 13 0 0 1.123421e-41 0
4.8024411 -0.76819712 -1.5860647 12 0 0 1.1235611e-41 0
5.2503223 -0.83799934 -1.6225665 13 0 0 1.1237012e-41 0
5.7653422 -0.91902351 -1.6619943 14 0 0 1.1238414e-41 0
6.3374691 -1.0093887 -1.6973588 14 0 0 1.1239815e-41 0
4.2052331 -0.67212814 -1.5407256 10 0 0 1.1241216e-41 0
4.5569134 -0.72604728 -1.568334 13 0 0 1.1242618e-41 0
4.9566875 -0.78740835 -1.598889 12 0 0 1.1244019e-41 0
5.4236026 -0.85998988 -1.6353697 14 0 0 1.124542e-41 0
5.9837074 -0.9474889 -1.680747 13 0 0 1.1246821e-41 0
6.599916 -1.0443419 -1.7190624 14 0 0 1.1248223e-41 0
4.3294196 -0.68668926 -1.5505831 10 0 0 1.1249624e-41 0
4.6941237 -0.74245673 -1.5791771 12 0 0 1.1251025e-41 0
5.1319728 -0.80937344 -1.6166896 13 0 0 1.1252427e-41 0
5.5928659 -0.88102823 -1.6441772 14 0 0 1.1253828e-41 0
6.1629772 -0.96941257 -1.6855431 13 0 0 1.1255229e-41 0
6.8553224 -1.0763781 -1.7357732 13 0 0 1.1256631e-41 0
4.4606204 -0.70216799 -1.5624328 11 0 0 1.1258032e-41 0
4.8293176 -0.75789094 -1.586022 13 0 0 1.1259433e-41 0
5.30123 -0.8294102 -1.6294966 13 0 0 1.1260834e-41 0
5.8122106 -0.9074809 -1.6649277 14 0 0 1.1262236e-41 0
6.4003506 -0.99865776 -1.702274 14 0 0 1.1263637e-41 0
7.1668429 -1.1167592 -1.7634214 12 0 0 1.1265038e-41 0
4.5857916 -0.71571839 -1.5692887 11 0 0 1.126644e-41 0
4.9925656 -0.77699649 -1.6008356 13 0 0 1.1267841e-41 0
5.4754844 -0.84938955 -1.6402975 13 0 0 1.1269242e-41 0
6.0145116 -0.93113393 -1.6776974 14 0 0 1.1270644e-41 0
6.6677632 -1.0305517 -1.7249705 13 0 0 1.1272045e-41 0
7.4913588 -1.1569904 -1.7880545 13 0 0 1.1273446e-41 0
4.7320037 -0.73202205 -1.582121 11 0 0 1.1274847e-41 0
5.1648135 -0.79599732 -1.6156385 14 0 0 1.1276249e-41 0
5.6567378 -0.86928731 -1.6510903 13 0 0 2 0
6.2328243 -0.95560068 -1.6914485 14 0 0 2 0
6.9401731 -1.0623885 -1.7446611 12 0 0 2 0
7.8308864 -1.1980464 -1.8136702 13 0 0 2 0
4.8731871 -0.74638587 -1.5899585 11 0 0 2 0
5.33706 -0.81499821 -1.6294415 14 0 0 2 0
5.8670444 -0.89284503 -1.6688504 15 0 0 2 0
6.4822016 -0.98470396 -1.7121651 14 0 0 1.1287459e-41 0
7.2366176 -1.0969454 -1.7663246 13 0 0 1.128886e-41 0
8.2114735 -1.2436242 -1.8432395 12 0 0 1.1290262e-41 0
5.0323992 -0.76253778 -1.6037756 11 0 0 1.1291663e-41 0
5.5072784 -0.83202386 -1.639246 14 0 0 1.1293064e-41 0
6.0803366 -0.91536856 -1.6846066 14 0 0 1.1294466e-41 0
6.7375631 -1.0127386 -1.7298743 15 0 0 1.1295867e-41 0
7.5701118 -1.1350703 -1.7929461 13 0 0 1.1297268e-41 0
8.6080589 -1.2890167 -1.8707899 11 0 0 1.129867e-41 0
5.2106361 -0.78046787 -1.6195711 12 0 0 1.1300071e-41 0
5.6915088 -0.84988636 -1.6500343 14 0 0 1.1301472e-41 0
6.2865996 -0.93597555 -1.6943703 14 0 0 1.1302873e-41 0
7.0039239 -1.0406451 -1.7475704 13 0 0 1.1304275e-41 0
7.9396663 -1.1777749 -1.8235271 13 0 0 1.1305676e-41 0
9.0837898 -1.3454868 -1.9092519 12 0 0 1.1307077e-41 0
5.386858 -0.79742235 -1.6323684 11 0 0 1.1308479e-41 0
5.9087934 -0.87136173 -1.6687853 15 0 0 1.130988e-41 0
6.5469542 -0.96295017 -1.7160729 13 0 0 1.1311281e-41 0
7.3253732 -1.0749089 -1.7742043 13 0 0 1.1312683e-41 0
8.2881308 -1.2137271 -1.84413 12 0 0 1.1314084e-41 0
9.5975437 -1.403514 -1.9496698 12 0 0 1.1315485e-41 0
5.5680671 -0.81331897 -1.6441596 12 0 0 2 0
6.1210489 -0.89089715 -1.6825413 14 0 0 2 0
6.8092918 -0.98890269 -1.7337729 14 0 0 2 0
7.6588192 -1.1090335 -1.798824 13 0 0 2 0
8.7267437 -1.2606279 -1.8786316 12 0 0 2 0
10.176382 -1.4677832 -1.9960139 12 0 0 2 0
5.7562747 -0.82913405 -1.6559421 12 0 0 2 0
6.3403025 -0.9103514 -1.6952891 14 0 0 1.1326695e-41 0
7.0866299 -1.0146804 -1.752455 13 0 0 1.1328097e-41 0
8.0373268 -1.1476325 -1.8293927 12 0 0 1.1329498e-41 0
9.202404 -1.3110968 -1.916091 12 0 0 1.1330899e-41 0
10.852377 -1.5439208 -2.0522485 13 0 0 1.1332301e-41 0
5.9665208 -0.84769148 -1.6717001 12 0 0 1.1333702e-41 0
6.5976086 -0.93336087 -1.7149935 14 0 0 1.1335103e-41 0
7.4140453 -1.0458729 -1.7800806 13 0 0 2 0
8.387742 -1.179561 -1.8489914 12 0 0 2 0
9.7291241 -1.3659711 -1.9574922 12 0 0 2 0
11.562379 -1.6206634 -2.1064436 13 0 0 2 0
6.1827416 -0.86417985 -1.6854501 12 0 0 2 0
6.8589005 -0.95532441 -1.7326928 13 0 0 2 0
7.7444429 -1.0760324 -1.8027021 14 0 0 2 0
8.8453484 -1.2252378 -1.88747 12 0 0 1.1346314e-41 0
10.323916 -1.4260523 -2.0048158 12 0 0 1.1347715e-41 0
12.411572 -1.7117847 -2.1744809 13 0 0 1.1349116e-41 0
6.4219999 -0.88339889 -1.7031741 13 0 0 1.1350518e-41 0
7.1502285 -0.97993779 -1.7533581 14 0 0 1.1351919e-41 0
8.1289053 -1.1105601 -1.8342619 14 0 0 1.135332e-41 0
9.3409758 -1.2724723 -1.9269044 13 0 0 1.1354721e-41 0
11.01284 -1.4960368 -2.0610325 13 0 0 2 0
13.323809 -1.8061731 -2.2424455 13 0 0 2 0
6.6722436 -0.90149087 -1.7188847 13 0 0 2 0
7.4765944 -1.0071419 -1.778983 14 0 0 2 0
8.4892864 -1.1393716 -1.8538475 12 0 0 2 0
9.8676128 -1.3203459 -1.9663028 12 0 0 2 0
11.779847 -1.5721118 -2.1231599 13 0 0 2 0
14.355198 -1.9121745 -2.318275 12 0 0 1.1365932e-41 0
6.9284873 -0.91951263 -1.7345884 13 0 0 1.1367333e-41 0
7.8089342 -1.0322773 -1.8016 14 0 0 1.1368734e-41 0
8.9458084 -1.1780596 -1.8903242 12 0 0 1.1370136e-41 0
10.48637 -1.3771456 -2.0155964 12 0 0 1.1371537e-41 0
12.623922 -1.6532899 -2.188199 12 0 0 1.1372938e-41 0
15.518714 -2.027638 -2.4009528 9 0 0 1.137434e-41 0
7.2458086 -0.94282037 -1.7612221 13 0 0 2 0
8.1763105 -1.0600036 -1.8281769 12 0 0 2 0
9.450387 -1.2211879 -1.9297464 12 0 0 2 0
11.165187 -1.4382458 -2.0688212 12 0 0 2 0
13.520015 -1.7358637 -2.2511773 11 0 0 2 0
16.760279 -2.1471949 -2.4815407 10 0 0 2 0
7.5621018 -0.96414149 -1.7828562 13 0 0 2 0
8.5706978 -1.0884154 -1.8557222 12 0 0 1.138555e-41 0
9.9859552 -1.262955 -1.9701312 12 0 0 1.1386951e-41 0
11.946101 -1.5061554 -2.1319287 12 0 0 1.1388353e-41 0
14.596338 -1.8353368 -2.3319509 10 0 0 1.1389754e-41 0
16.96796 -2.1268098 -2.3992846 6 0 0 1.1391155e-41 0
7.9034081 -0.98617047 -1.8074614 12 0 0 1.1392557e-41 0
9.0411854 -1.123939 -1.8931812 13 0 0 1.1393958e-41 0
10.608631 -1.3127066 -2.019417 12 0 0 1.1395359e-41 0
12.791059 -1.5773203 -2.194962 12 0 0 1.139676e-41 0
15.802763 -1.9422963 -2.4175742 9 0 0 1.1398162e-41 0
17.45808 -2.139133 -2.3527102 3 0 0 1.1399563e-41 0
8.2657118 -1.0079552 -1.8310415 12 0 0 1.1400964e-41 0
9.5326471 -1.1572185 -1.9296142 12 0 0 1.1402366e-41 0
11.301369 -1.3666412 -2.0746222 13 0 0 1.1403767e-41 0
13.717072 -1.6525415 -2.2609019 11 0 0 1.1405168e-41 0
17.32761 -2.0805445 -2.5358365 12 0 0 1.1406569e-41 0
19.622845 -2.3479371 -2.51525 6 0 0 1.1407971e-41 0
8.6690531 -1.0322609 -1.8595744 12 0 0 1.1409372e-41 0
10.100194 -1.1966105 -1.9739603 12 0 0 1.1410773e-41 0
12.073164 -1.4246547 -2.1337359 13 0 0 1.1412175e-41 0
14.79124 -1.7390363 -2.3386722 10 0 0 1.1413576e-41 0
19.234928 -2.2533371 -2.6876633 14 0 0 2 0
26.3766 -3.0782671 -3.2056129 6 0 0 2 0
9.1674986 -1.0634556 -1.9019983 12 0 0 2 0
10.715764 -1.2374429 -2.0202506 13 0 0 2 0
12.930016 -1.4866779 -2.1967516 12 0 0 2 0
16.006514 -1.8328875 -2.4242792 10 0 0 2 0
21.35437 -2.4356616 -2.8432446 15 0 0 2 0
31.134731 -3.5398712 -3.5832093 3 0 0 1.1424786e-41 0
9.6428633 -1.0889213 -1.9344468 13 0 0 1.1426188e-41 0
11.406383 -1.2813995 -2.0734539 14 0 0 1.1427589e-41 0
13.887938 -1.5535228 -2.2666497 11 0 0 1.142899e-41 0
17.603251 -1.9602911 -2.5504518 12 0 0 1.1430392e-41 0
24.042473 -2.6663613 -3.045177 8 0 0 1.1431793e-41 0
34.931953 -3.8596859 -3.7948744 1 0 0 1.1433194e-41 0
10.198303 -1.1194525 -1.9758034 12 0 0 1.1434595e-41 0
12.158036 -1.3276447 -2.129586 13 0 0 1.1435997e-41 0
14.968958 -1.6269326 -2.3454061 11 0 0 1.1437398e-41 0
19.497284 -2.1092308 -2.6982839 14 0 0 1.1438799e-41 0
26.935608 -2.8996787 -3.2388694 5 0 0 1.1440201e-41 0
10.810769 -1.1513178 -2.0220931 13 0 0 1.1441602e-41 0
13.003747 -1.3777941 -2.190609 12 0 0 1.1443003e-41 0
16.220106 -1.7093595 -2.4359658 10 0 0 1.1444405e-41 0
21.536325 -2.2584844 -2.8419449 14 0 0 1.1445806e-41 0
56.631927 -5.8870373 -5.4412007 3 0 0 1.1447207e-41 0
11.49227 -1.1853781 -2.0733025 14 0 0 1.1448608e-41 0
13.952518 -1.4317414 -2.2595122 11 0 0 1.145001e-41 0
17.805609 -1.8168875 -2.5591428 12 0 0 1.1451411e-41 0
24.16898 -2.4518199 -3.0349259 7 0 0 1.1452812e-41 0
35.405697 -3.5740559 -3.8111832 0 0 0 2 0
56.604206 -5.6884494 -5.0891423 59 0 0 2 0
12.249805 -1.221552 -2.1284232 13 0 0 2 0
15.03336 -1.4901488 -2.3372619 9 0 0 2 0
19.652287 -1.9363723 -2.6980174 14 0 0 2 0
26.866461 -2.6324065 -3.2038252 4 0 0 2 0
56.763657 -5.5016804 -4.7538691 77 0 0 2 0
13.122416 -1.2623829 -2.1944103 13 0 0 1.1464023e-41 0
16.286324 -1.5565494 -2.4268124 10 0 0 1.1465424e-41 0
21.62495 -2.0543914 -2.8327422 8 0 0 1.1466825e-41 0
29.68681 -2.8025665 -3.3565745 0 0 0 1.1468227e-41 0
57.008759 -5.3534503 -5.429513 8 0 0 1.1469628e-41 0
56.861008 -5.3066325 -4.4196653 150 0 0 1 0
14.072037 -1.3033159 -2.2633069 12 0 0 1.1472431e-41 0
17.834541 -1.6405056 -2.5450227 12 0 0 1.1473832e-41 0
24.273256 -2.2175331 -3.0266914 6 0 0 1.1475233e-41 0
56.899746 -5.1308074 -5.0725393 4 0 0 1.1476634e-41 0
74.754524 -6.6993861 -5.3601961 67 0 0 2 0
15.155704 -1.3466858 -2.3400462 9 0 0 1.1479437e-41 0
19.763054 -1.7440264 -2.6957932 14 0 0 1.1480838e-41 0
27.113506 -2.3754418 -3.2134118 4 0 0 1.148224e-41 0
74.717735 -6.4583197 -6.21313 67 0 0 1.1483641e-41 0
74.803719 -6.4169188 -4.9190087 59 0 0 1.1485042e-41 0
16.405458 -1.3951174 -2.4305921 10 0 0 1.1486444e-41 0
21.605244 -1.8235596 -2.8126545 9 0 0 1.1487845e-41 0
31.899727 -2.6726584 -3.585901 1 0 0 1.1489246e-41 0
74.602882 -6.2111602 -7.0671535 5 0 0 1.1490647e-41 0
74.76992 -6.1738153 -5.7779384 99 0 0 1.1492049e-41 0
75.074173 -6.1518703 -4.5025682 150 0 0 1.149345e-41 0
17.96946 -1.4598823 -2.5507748 12 0 0 1.1494851e-41 0
24.071957 -1.9388077 -2.9867961 6 0 0 1.1496253e-41 0
74.769096 -5.9283271 -6.6378279 78 0 0 2 0
74.831078 -5.8852029 -5.347734 92 0 0 2 0
60.27084 -4.7002654 -3.2703633 3 0 0 2 0
19.810583 -1.5314144 -2.6906338 14 0 0 2 0
26.943842 -2.0643327 -3.1824644 4 0 0 2 0
74.804108 -5.6290193 -6.204649 95 0 0 2 0
74.919121 -5.5882759 -4.9214935 88 0 0 2 0
60.03635 -4.4370732 -2.915518 43 0 0 1.1507463e-41 0
21.572393 -1.5798767 -2.799576 10 0 0 1.1508864e-41 0
31.380999 -2.2756002 -3.5183258 4 0 0 1.1510266e-41 0
74.695107 -5.3697896 -7.0606589 3 0 0 1.1511667e-41 0
71.129433 -5.0619364 -5.4917226 21 0 0 1.1513068e-41 0
60.308994 -4.2465019 -3.6181092 4 0 0 1.1514469e-41 0
59.679729 -4.1633005 -2.5618119 55 0 0 1.1515871e-41 0
24.087753 -1.6635443 -2.9826455 6 0 0 1.1517272e-41 0
71.219604 -4.8194103 -6.3185048 32 0 0 1.1518673e-41 0
71.599823 -4.7875495 -5.11304 10 0 0 1.1520075e-41 0
59.556934 -3.9403358 -3.2358539 45 0 0 1.1521476e-41 0
36.620205 -2.3956864 -1.3701966 2 0 0 1 0
26.886086 -1.7429147 -3.1693795 4 0 0 1.1524279e-41 0
58.120724 -3.6822097 -4.8254299 2 0 0 1.152568e-41 0
58.910717 -3.6874673 -3.8794997 34 0 0 1 0
59.36343 -3.6746612 -2.8979585 31 0 0 1.1528482e-41 0
36.525078 -2.2338398 -1.1682324 47 0 0 1.1529884e-41 0
55.784092 -3.3370764 -5.2800269 20 0 0 1.1531285e-41 0
56.278885 -3.3237514 -4.3614364 68 0 0 1 0
59.137547 -3.4448965 -3.5691187 52 0 0 1.1534088e-41 0
36.160713 -2.0778413 -1.571589 46 0 0 1 0
36.787159 -2.0868373 -0.97585344 28 0 0 1.153689e-41 0
35.846607 -2.0134079 -3.8129311 1 0 0 1.1538292e-41 0
56.096127 -3.1085057 -4.9975519 54 0 0 1.1539693e-41 0
55.602077 -3.0367084 -4.0021005 17 0 0 1 0
59.294273 -3.1941385 -3.258817 45 0 0 1.1542495e-41 0
35.978504 -1.9090056 -1.3727241 48 0 0 1.1543897e-41 0
36.107559 -1.8887864 -0.76756173 50 0 0 1.1545298e-41 0
41.131706 -2.1287735 -4.146749 5 0 0 1.1546699e-41 0
55.476368 -2.8258004 -4.6381512 63 0 0 1.1548101e-41 0
59.773888 -2.9981496 -3.9801602 61 0 0 1.1549502e-41 0
36.282631 -1.7882255 -1.8033082 44 0 0 1 0
35.764225 -1.7345433 -1.173894 47 0 0 1.1552305e-41 0
35.972328 -1.7174017 -0.57563996 31 0 0 1.1553706e-41 0
55.442036 -2.5702682 -4.3340707 68 0 0 1.1555107e-41 0
56.440033 -2.568074 -3.4518919 65 0 0 1.1556508e-41 0
36.110348 -1.6132765 -1.6034284 49 0 0 1.155791e-41 0
35.712055 -1.5671939 -0.98487604 69 0 0 1.1559311e-41 0
34.609356 -1.4902971 -0.37314022 42 0 0 1.1560712e-41 0
39.781834 -1.6906282 -3.5741341 56 0 0 1 0
55.53371 -2.3132625 -4.0418425 95 0 0 1.1563515e-41 0
36.352356 -1.4822164 -2.0350809 47 0 0 1 0
36.147175 -1.4448895 -1.4153047 64 0 0 1.1566318e-41 0
35.657822 -1.394866 -0.79685789 60 0 0 1.1567719e-41 0
36.235069 -1.3874301 -0.20217268 46 0 0 1.156912e-41 0
39.575237 -1.4920858 -3.3422837 56 0 0 1.1570521e-41 0
36.868496 -1.3589556 -2.4924135 8 0 0 1.1571923e-41 0
35.806805 -1.2886144 -1.8176324 83 0 0 1.1573324e-41 0
35.589649 -1.2524213 -1.210871 65 0 0 1.1574725e-41 0
35.45155 -1.2193036 -0.61501765 60 0 0 1.1576127e-41 0
36.348927 -1.2211425 -0.023959111 33 0 0 1.1577528e-41 0
36.516136 -1.202819 -2.8957555 20 0 0 1 0
35.744637 -1.1460991 -2.2326384 65 0 0 1.1580331e-41 0
35.734558 -1.1144947 -1.6326345 71 0 0 1.1581732e-41 0
35.162254 -1.0684353 -1.0192873 52 0 0 1.1583133e-41 0
35.971565 -1.0632895 -0.4443295 64 0 0 1.1584534e-41 0
37.348076 -1.0745602 0.15828973 19 0 0 1.1585936e-41 0
37.141144 -1.042567 -2.7549415 56 0 0 1.1587337e-41 0
35.592327 -0.96791226 -2.0437331 87 0 0 1.1588738e-41 0
34.853951 -0.91779041 -1.4195796 47 0 0 1.159014e-41 0
35.698246 -0.90923023 -0.8585788 70 0 0 1.1591541e-41 0
36.275421 -0.89478946 -0.27089047 61 0 0 1.1592942e-41 0
36.516426 -0.86926615 0.33240655 53 0 0 1.1594343e-41 0
35.873264 -0.8303954 -2.480336 63 0 0 1 0
34.980831 -0.77807689 -1.8343633 59 0 0 1.1597146e-41 0
35.753052 -0.76335114 -1.2794449 68 0 0 1.1598547e-41 0
35.105785 -0.72016197 -0.6741873 66 0 0 1.1599949e-41 0
36.120049 -0.70963156 -0.094985209 72 0 0 1.160135e-41 0
36.181988 -0.67918819 0.50210291 62 0 0 1.1602751e-41 0
35.721886 -0.64619702 -2.2924266 75 0 0 1.1604153e-41 0
35.438721 -0.60977411 -1.6837426 68 0 0 1.1605554e-41 0
36.004749 -0.55572975 -0.51804799 47 0 0 1.1606955e-41 0
36.104679 -0.52384323 0.077085704 63 0 0 1.1608356e-41 0
36.118626 -0.49395743 0.67211694 42 0 0 1.1609758e-41 0
36.118652 -0.4676041 -2.1398728 78 0 0 1.1611159e-41 0
34.08905 -0.41153851 -1.4562397 1 0 0 1.161256e-41 0
34.095013 -0.37973106 -0.89221686 21 0 0 1.1613962e-41 0
35.923336 -0.36671025 -0.34505329 69 0 0 1.1615363e-41 0
36.040291 -0.33662391 0.24609956 67 0 0 1.1616764e-41 0
36.033234 -0.30598062 0.83710647 15 0 0 1 0
35.801216 -0.27933905 -1.9501569 83 0 0 1.1619567e-41 0
36.257214 -0.24929859 -1.3766041 55 0 0 1.1620968e-41 0
36.000065 -0.21357152 -0.77288973 47 0 0 1.1622369e-41 0
36.413052 -0.18403918 -0.18338795 50 0 0 1.1623771e-41 0
36.472958 -0.15061982 0.41469929 49 0 0 1.1625172e-41 0
42.980343 -0.13925087 1.1973813 30 0 0 1.1626573e-41 0
35.883823 -0.090406448 -1.7859687 65 0 0 1.1627975e-41 0
36.157768 -0.057488035 -1.2046293 48 0 0 1.1629376e-41 0
36.247681 -0.023717048 -0.61150646 66 0 0 1.1630777e-41 0
36.235596 0.0088662691 -0.017504545 51 0 0 1.1632179e-41 0
36.680504 0.043765787 0.5830375 5 0 0 1.163358e-41 0
41.015427 0.08687716 1.3251717 38 0 0 1.1634981e-41 0
35.955383 0.10239833 -1.6227914 88 0 0 1.1636382e-41 0
36.536324 0.13889489 -1.0500883 35 0 0 1.1637784e-41 0
36.129196 0.1718747 -0.44555205 55 0 0 1.1639185e-41 0
21.051132 0.12110834 0.077640533 15 0 0 1 0
36.201015 0.23916171 0.73556602 7 0 0 1.1641988e-41 0
35.915932 0.27157268 1.317246 58 0 0 1 0
36.286957 0.29823783 -1.475306 48 0 0 1 0
36.073845 0.33147848 -0.8765409 65 0 0 1.1646192e-41 0
21.243334 0.21648845 -0.17508613 0 0 0 1 0
21.099678 0.23665468 0.17075467 37 0 0 1.1648994e-41 0
35.871567 0.43230489 0.88427055 87 0 0 1.1650395e-41 0
35.910465 0.4674848 1.4713339 86 0 0 1.1651797e-41 0
37.790356 0.51874185 -1.3674269 27 0 0 1.1653198e-41 0
36.115334 0.53093624 -0.71839577 47 0 0 1.1654599e-41 0
20.914906 0.32764545 -0.081418619 15 0 0 1.1656001e-41 0
21.116243 0.35083061 0.25983047 15 0 0 1.1657402e-41 0
21.009604 0.37042984 0.60071462 9 0 0 3 0
21.297895 0.39662093 0.95606774 16 0 0 3 0
36.275902 0.699058 -1.1561258 23 0 0 3 0
35.784859 0.72506219 -0.55969179 78 0 0 3 0
20.982418 0.44641474 0.0077195675 43 0 0 3 0
20.991772 0.46736544 0.34674117 23 0 0 1.166581e-41 0
21.032108 0.48967507 0.68980008 38 0 0 1.1667211e-41 0
18.561146 0.44979727 0.90686756 1 0 0 1 0
35.763428 0.89106071 -0.98963732 86 0 0 1.1670014e-41 0
35.812302 0.92936021 -0.40956065 80 0 0 1.1671415e-41 0
21.022924 0.56587166 0.092826284 51 0 0 1.1672816e-41 0
21.01228 0.58658838 0.43382424 48 0 0 1.1674218e-41 0
20.890657 0.60501504 0.76969022 62 0 0 1.1675619e-41 0
18.468843 0.55371004 0.97781044 29 0 0 1.167702e-41 0
35.806866 1.0965465 -0.84248662 85 0 0 1.1678421e-41 0
20.779152 0.65617472 -0.15941671 0 0 0 1 0
20.918467 0.68164051 0.17676035 58 0 0 1.1681224e-41 0
20.981808 0.70422 0.51584643 24 0 0 1.1682625e-41 0
18.596066 0.64331651 0.75600475 1 0 0 1 0
18.47953 0.65882158 1.0498754 23 0 0 1.1685428e-41 0
35.833279 1.3038352 -0.69835508 65 0 0 1.1686829e-41 0
20.751656 0.77584004 -0.076389916 43 0 0 1.168823e-41 0
17.925135 0.68777144 0.22023574 0 0 0 1.1689632e-41 0
18.70225 0.73667973 0.53117603 0 0 0 1 0
18.545738 0.74971837 0.82599837 34 0 0 1.1692434e-41 0
18.739067 0.77682513 1.1372398 50 0 0 1.1693836e-41 0
22.628042 0.95385975 -0.358091 10 0 0 1.1695237e-41 0
20.603228 0.88909805 0.0034912415 1 0 0 1.1696638e-41 0
21.104351 0.93277836 0.34310362 51 0 0 1.169804e-41 0
18.600925 0.84248835 0.60010934 12 0 0 1.1699441e-41 0
18.579367 0.86009765 0.89809293 52 0 0 1.1700842e-41 0
18.685717 0.88519317 1.205231 22 0 0 1.1702243e-41 0
20.600332 0.99120635 -0.24746181 9 0 0 1.1703645e-41 0
20.698658 1.0161983 0.081666663 34 0 0 1.1705046e-41 0
20.851938 1.0448278 0.41686168 44 0 0 1.1706447e-41 0
18.239775 0.93327492 0.65572917 42 0 0 1.1707849e-41 0
18.593988 0.97125709 0.96716553 51 0 0 1.170925e-41 0
18.469477 0.98466992 1.2580259 72 0 0 1.1710651e-41 0
21.016584 1.1360482 -0.17389965 8 0 0 1.1712053e-41 0
20.044495 1.1045656 0.15293986 59 0 0 1.1713454e-41 0
18.233978 1.0243342 0.42976752 35 0 0 1.1714855e-41 0
18.292381 1.0458771 0.72384727 44 0 0 1.1716256e-41 0
18.34276 1.0693252 1.0209186 30 0 0 1.1717658e-41 0
18.063374 1.0729403 1.2955915 25 0 0 1.1719059e-41 0
20.65423 1.2418132 -0.095274024 37 0 0 1.172046e-41 0
18.236191 1.1144868 0.20381491 23 0 0 1 0
18.233629 1.1333207 0.49482152 21 0 0 1.1723263e-41 0
18.385941 1.1629565 0.79301596 6 0 0 1.1724664e-41 0
18.084574 1.1643139 1.069662 39 0 0 1.1726066e-41 0
18.374779 1.2025505 1.3820229 18 0 0 1.1727467e-41 0
18.306332 1.211431 -0.021054281 0 0 0 1 0
18.15587 1.2205421 0.26677334 40 0 0 1.1730269e-41 0
18.201258 1.2439349 0.55783868 36 0 0 1.1731671e-41 0
18.378542 1.2758616 0.85706359 8 0 0 1.1733072e-41 0
18.155148 1.2801266 1.135803 7 0 0 1.1734473e-41 0
18.085615 1.2961814 1.4227294 46 0 0 1.1735875e-41 0
18.205015 1.3172426 0.039879326 48 0 0 1.1737276e-41 0
18.30636 1.3442879 0.3310124 2 0 0 1 0
18.18289 1.3547133 0.61887246 35 0 0 1.1740079e-41 0
18.095396 1.3675596 0.90377617 47 0 0 1.174148e-41 0
17.979921 1.3790815 1.1846461 61 0 0 1 0
18.060251 1.40688 1.4797548 4 0 0 1 0
18.26157 1.4348948 0.10100477 7 0 0 1 0
20.502014 1.6328627 0.44074136 53 0 0 1.1747085e-41 0
17.9517 1.4500147 0.66964799 1 0 0 1 0
18.239857 1.4932338 0.97100908 16 0 0 1.1749888e-41 0
20.85771 1.7305404 1.4452095 45 0 0 1.1751289e-41 0
21.055815 1.7726865 1.796464 62 0 0 1.175269e-41 0
32.142208 2.7287183 0.29398954 84 0 0 1.1754092e-41 0
20.54439 1.7653512 0.50685722 19 0 0 1.1755493e-41 0
32.235085 2.8073242 1.3171383 108 0 0 1.1756894e-41 0
18.352337 1.6175374 1.0342038 0 0 0 1 0
20.863066 1.8645977 1.5112826 41 0 0 1.1759697e-41 0
32.34885 2.9279263 2.8693328 79 0 0 1.1761098e-41 0
32.185658 2.9372222 0.39514294 99 0 0 1.1762499e-41 0
32.221619 2.9744034 0.90520394 91 0 0 1.1763901e-41 0
32.271542 3.0147464 1.418283 122 0 0 1.1765302e-41 0
32.314457 3.0560064 1.933354 111 0 0 1.1766703e-41 0
18.525099 1.7734045 1.3964853 8 0 0 1.1768105e-41 0
32.402233 3.1415448 2.9735003 112 0 0 1.1769506e-41 0
32.267029 3.1521697 0.4943442 24 0 0 1.1770907e-41 0
32.274033 3.1860137 1.0033695 71 0 0 1.1772308e-41 0
32.301949 3.2270999 1.516423 94 0 0 1.177371e-41 0
32.340862 3.2683129 2.0324893 104 0 0 1.1775111e-41 0
32.391743 3.3116646 2.5505712 100 0 0 1.1776512e-41 0
32.542473 3.3671744 3.0827761 6 0 0 1.1777914e-41 0
32.245487 3.3599191 0.58942086 138 0 0 1.1779315e-41 0
32.316406 3.4015079 1.0995251 32 0 0 1.1780716e-41 0
32.32336 3.4393504 1.6105524 111 0 0 1.1782117e-41 0
20.614105 2.2178462 1.3491654 13 0 0 1 0
20.620426 2.2427661 1.6771855 65 0 0 1 0
20.435991 2.2474682 1.9879712 89 0 0 1 0
20.521563 2.2712235 0.42808241 61 0 0 1 0
20.537889 2.296263 0.75111443 70 0 0 1 0
20.588163 2.325696 1.0781885 46 0 0 1.1790525e-41 0
20.775249 2.3707209 1.4164313 21 0 0 1.1791927e-41 0
20.618769 2.3787458 1.7342515 27 0 0 1.1793328e-41 0
20.472292 2.3868892 2.0480833 22 0 0 1.1794729e-41 0
20.597795 2.4171119 0.48624498 24 0 0 1.179613e-41 0
20.466324 2.4244285 0.8040942 22 0 0 1.1797532e-41 0
20.335855 2.4317575 1.1199447 19 0 0 1.1798933e-41 0
20.194391 2.4389598 1.4317821 20 0 0 1.1800334e-41 0
20.045944 2.4450836 1.7386109 23 0 0 1.1801736e-41 0
19.902479 2.4532659 2.0434463 22 0 0 1.1803137e-41 0
20.022928 2.4834094 0.524602 22 0 0 1.1804538e-41 0
19.884504 2.4876485 0.83344162 22 0 0 1.180594e-41 0
19.749062 2.4939244 1.1382858 21 0 0 1.1807341e-41 0
19.61462 2.5002131 1.4401309 22 0 0 1.1808742e-41 0
19.489159 2.5086081 1.739988 23 0 0 1.1810143e-41 0
19.350727 2.5148532 2.0358286 22 0 0 1.1811545e-41 0
19.466141 2.5439181 0.55897766 23 0 0 1.1812946e-41 0
19.341715 2.549325 0.85783428 21 0 0 1.1814347e-41 0
19.207304 2.5536163 1.1546786 21 0 0 1.1815749e-41 0
19.092846 2.5621414 1.4495487 20 0 0 1.181715e-41 0
18.959433 2.5674477 1.7393947 22 0 0 1.1818551e-41 0
18.826996 2.5747664 2.0272427 22 0 0 1.1819953e-41 0
18.932375 2.6026955 0.58937961 20 0 0 1.1821354e-41 0
18.823935 2.6102922 0.88125616 22 0 0 1.1822755e-41 0
18.698532 2.6146927 1.1691113 23 0 0 1.1824156e-41 0
18.589098 2.6222806 1.4549866 20 0 0 1.1825558e-41 0
18.464693 2.6276948 1.7378434 20 0 0 1.1826959e-41 0
18.330288 2.6329944 2.0166883 21 0 0 1.182836e-41 0
18.438625 2.6609404 0.61582863 19 0 0 1.1829762e-41 0
18.316242 2.6643779 0.89868677 21 0 0 1.1831163e-41 0
18.216824 2.6710849 1.1795734 19 0 0 1.1832564e-41 0
18.092422 2.6765015 1.4574302 18 0 0 1.1833966e-41 0
17.983011 2.683094 1.7333052 18 0 0 1.1835367e-41 0
17.858629 2.6875138 2.0051615 20 0 0 1.1836768e-41 0
17.768248 2.687125 0.63305408 19 0 0 1.1838169e-41 0
16.431053 2.5034087 0.84139055 19 0 0 1.1839571e-41 0
16.320705 2.5070019 1.0922629 18 0 0 1.1840972e-41 0
17.634758 2.7301774 1.4589196 18 0 0 1.1842373e-41 0
17.521378 2.7347271 1.7267889 18 0 0 1.1843775e-41 0
17.399006 2.7391729 1.9916477 21 0 0 1.1845176e-41 0
16.097797 2.5466461 0.60602093 21 0 0 1 0
16.02343 2.5526605 0.85393685 31 0 0 1.1847979e-41 0
15.896141 2.5520594 1.0957873 19 0 0 1.184938e-41 0
17.16518 2.7767148 1.4553916 19 0 0 1.1850781e-41 0
17.07777 2.78457 1.7182932 21 0 0 1.1852182e-41 0
16.88456 2.7761958 1.9670622 23 0 0 1.1853584e-41 0
16.063509 2.6532497 0.63703477 62 0 0 1.1854985e-41 0
15.775568 2.6227751 0.87168151 21 0 0 1.1856386e-41 0
15.501597 2.5954666 1.0993462 18 0 0 1.1857788e-41 0
16.516047 2.7861619 1.4326342 55 0 0 1.1859189e-41 0
16.425674 2.7919874 1.6845312 65 0 0 1.186059e-41 0
16.449045 2.8191359 1.9485726 37 0 0 1.1861992e-41 0
16.072149 2.7663553 0.66710246 61 0 0 1.1863393e-41 0
15.484819 2.6833899 0.8843711 16 0 0 1.1864794e-41 0
15.120056 2.6390259 1.0999206 22 0 0 1.1866195e-41 0
15.966797 2.8057721 1.4139994 25 0 0 1.1867597e-41 0
16.278585 2.8822811 1.6994044 26 0 0 1.1868998e-41 0
16.22213 2.8955026 1.9513451 59 0 0 1.1870399e-41 0
16.090738 2.8835776 0.69718385 61 0 0 1.1871801e-41 0
15.301884 2.760262 0.90119559 16 0 0 1.1873202e-41 0
14.75655 2.6797953 1.099515 22 0 0 1.1874603e-41 0
14.681231 2.6838086 1.3244288 9 0 0 1.1876004e-41 0
16.165434 2.9779694 1.7173203 37 0 0 1.1877406e-41 0
16.148914 2.9966559 1.9723105 16 0 0 1.1878807e-41 0
15.853878 2.95382 0.71394169 29 0 0 1.1880208e-41 0
15.165874 2.8436821 0.9180786 16 0 0 1.188161e-41 0
14.388118 2.7145069 1.0961006 22 0 0 1.1883011e-41 0
14.305819 2.7174416 1.3150058 19 0 0 1.1884412e-41 0
16.11517 3.083391 1.7383149 5 0 0 1.1885814e-41 0
15.799344 3.0445971 1.9549249 6 0 0 1.1887215e-41 0
15.499314 2.9986904 0.72154862 28 0 0 1.1888616e-41 0
15.03189 2.9251258 0.93396312 17 0 0 1.1890017e-41 0
14.061636 2.7537084 1.0927378 22 0 0 1.1891419e-41 0
13.987329 2.7577379 1.307653 22 0 0 1.189282e-41 0
15.431408 3.0634398 1.6885028 18 0 0 1.1894221e-41 0
15.273246 3.0534844 1.9143125 21 0 0 1.1895623e-41 0
15.134825 3.0374451 0.72614104 29 0 0 1.1897024e-41 0
14.900895 3.0076051 0.94785166 23 0 0 1.1898425e-41 0
13.739202 2.7889564 1.087378 21 0 0 1.1899827e-41 0
13.647964 2.7877913 1.2952707 21 0 0 1.1901228e-41 0
14.827577 3.0494192 1.6427877 26 0 0 1.1902629e-41 0
14.743258 3.0533268 1.868691 24 0 0 1.190403e-41 0
14.814285 3.0807123 0.7307874 28 0 0 1.1905432e-41 0
14.689125 3.0711432 0.95363599 28 0 0 1.1906833e-41 0
13.435768 2.8244257 1.0820408 20 0 0 1.1908234e-41 0
13.356508 2.8254023 1.2859485 20 0 0 1.1909636e-41 0
14.495147 3.0855565 1.6264166 27 0 0 1.1911037e-41 0
14.411834 3.0894783 1.8463211 25 0 0 1.1912438e-41 0
14.483832 3.116864 0.7324186 27 0 0 1.191384e-41 0
14.392615 3.1126928 0.95230985 27 0 0 1.1915241e-41 0
13.161309 2.8622334 1.0757387 19 0 0 1.1916642e-41 0
13.074092 2.8601193 1.2746357 20 0 0 1.1918043e-41 0
13.633158 3.0015299 1.5453635 23 0 0 1.1919445e-41 0
14.108407 3.1259558 1.8249843 26 0 0 1.1920846e-41 0
14.168392 3.1521902 0.73306721 29 0 0 1.1922247e-41 0
14.09913 3.1522779 0.94898635 27 0 0 1.1923649e-41 0
12.963686 2.9139366 1.0745342 18 0 0 1.192505e-41 0
12.787735 2.8897901 1.2613157 23 0 0 1.1926451e-41 0
12.960807 2.9477093 1.4835484 25 0 0 1.1927853e-41 0
13.81199 3.1615148 1.8026555 26 0 0 1.1929254e-41 0
13.861976 3.1856232 0.73072565 27 0 0 1.1930655e-41 0
13.793731 3.1847239 0.94264549 27 0 0 1.1932056e-41 0
12.893753 2.9921286 1.0824928 16 0 0 1.1933458e-41 0
12.525329 2.9237394 1.2490263 23 0 0 1.1934859e-41 0
12.453098 2.9238045 1.438942 22 0 0 1.193626e-41 0
12.383844 2.9259045 1.6278622 21 0 0 1.1937662e-41 0
13.155712 3.1203866 0.70586526 27 0 0 1.1939063e-41 0
13.090493 3.1185286 0.90578812 27 0 0 1.1940464e-41 0
12.877659 3.0839491 1.0935214 16 0 0 1.1941866e-41 0
12.252021 2.9495625 1.2327199 24 0 0 1.1943267e-41 0
12.186781 2.9507103 1.4196444 22 0 0 1.1944668e-41 0
12.114546 2.9517775 1.6045606 19 0 0 1.1946069e-41 0
12.989051 3.1754506 0.70669872 68 0 0 1.1947471e-41 0
13.001598 3.1935003 0.91072291 86 0 0 1.1948872e-41 0
12.861568 3.1757705 1.1025501 18 0 0 1.1950273e-41 0
12.072476 2.9954779 1.2245339 39 0 0 1.1951675e-41 0
12.07204 3.0133817 1.4165426 48 0 0 1.1953076e-41 0
12.091539 3.0365176 1.6115777 47 0 0 1.1954477e-41 0
13.003838 3.2776325 0.71776885 77 0 0 1.1955878e-41 0
12.998447 3.2904732 0.91976935 41 0 0 1.195728e-41 0
12.815564 3.2602432 1.1085399 25 0 0 1.1958681e-41 0
12.09632 3.0927639 1.2366123 41 0 0 1.1960082e-41 0
12.081933 3.1065054 1.4266027 49 0 0 1.1961484e-41 0
12.082494 3.1244197 1.6206129 50 0 0 1.1962885e-41 0
12.773384 3.3149519 0.71251875 28 0 0 1.1964286e-41 0
12.730109 3.3183513 0.90947008 27 0 0 1.1965688e-41 0
12.660909 3.315449 1.1033878 27 0 0 1.1967089e-41 0
12.095253 3.1827602 1.2446579 41 0 0 1.196849e-41 0
12.089839 3.1986055 1.4366599 50 0 0 1.1969891e-41 0
12.09239 3.2175438 1.6296729 50 0 0 1.1971293e-41 0
12.518043 3.3429799 0.70423484 27 0 0 1.1972694e-41 0
12.482771 3.3464751 0.89719564 27 0 0 1.1974095e-41 0
12.433512 3.3488066 1.0901395 28 0 0 1.1975497e-41 0
12.114113 3.2789893 1.2537299 42 0 0 1.1976898e-41 0
12.096736 3.2916951 1.4447165 51 0 0 1.1978299e-41 0
12.120212 3.3168769 1.6407572 51 0 0 1.1979701e-41 0
12.281675 3.37323 0.69597435 26 0 0 1.1981102e-41 0
12.251396 3.377785 0.88594157 27 0 0 1.1982503e-41 0
12.194178 3.3770254 1.0738745 27 0 0 1.1983904e-41 0
12.125962 3.3761377 1.2607944 45 0 0 1.1985306e-41 0
12.115572 3.3899245 1.4527897 49 0 0 1.1986707e-41 0
12.136059 3.4140708 1.6498263 48 0 0 1.1988108e-41 0
12.064285 3.4057019 0.68673736 33 0 0 1.198951e-41 0
12.080849 3.4238045 0.87776631 49 0 0 1.1990911e-41 0
12.094411 3.4418721 1.0697917 52 0 0 1.1992312e-41 0
12.1219 3.4661016 1.2638366 48 0 0 1.1993714e-41 0
12.133435 3.4861438 1.4588608 47 0 0 1.1995115e-41 0
12.149921 3.5102432 1.6558926 48 0 0 1.1996516e-41 0
12.072176 3.4998059 0.68979567 49 0 0 1.1997917e-41 0
12.094715 3.5199785 0.88083273 56 0 0 2 0
12.109265 3.539057 1.0738598 54 0 0 2 0
12.137752 3.5632977 1.2689059 48 0 0 2 0
12.147287 3.5833166 1.4639275 48 0 0 2 0
12.162773 3.6074042 1.6609583 47 0 0 2 0
12.083043 3.5959449 0.69185853 48 0 0 2 0
12.103605 3.6140945 0.88289219 56 0 0 2 0
12.125117 3.6362541 1.0769291 54 0 0 1.2009128e-41 0
12.146629 3.6584132 1.2719659 48 0 0 1.2010529e-41 0
12.153165 3.6783967 1.466984 52 0 0 1.201193e-41 0
12.168661 3.7014842 1.6650143 46 0 0 1.2013332e-41 0
12.098898 3.6931431 0.69292778 51 0 0 1.2014733e-41 0
12.114474 3.7102344 0.88395512 52 0 0 1.2016134e-41 0
12.126022 3.7292776 1.0769787 54 0 0 1.2017536e-41 0
12.166459 3.7576571 1.2750407 47 0 0 1.2018937e-41 0
12.167031 3.7745709 1.4700506 50 0 0 1.2020338e-41 0
12.182515 3.7986579 1.6680812 45 0 0 1.202174e-41 0
12.113757 3.7903309 0.69199592 50 0 0 1.2023141e-41 0
12.12533 3.8073747 0.88401854 54 0 0 1.2024542e-41 0
12.150843 3.829581 1.07806 53 0 0 1.2025943e-41 0
12.166354 3.8516693 1.2740898 45 0 0 1.2027345e-41 0
12.177876 3.8727105 1.4711143 48 0 0 1.2028746e-41 0
12.194358 3.8968089 1.6701463 43 0 0 1.2030147e-41 0
12.118629 3.8864021 0.69005179 47 0 0 1.2031549e-41 0
12.141166 3.906574 0.88308883 53 0 0 1.203295e-41 0
12.158714 3.9256868 1.0771195 49 0 0 1.2034351e-41 0
12.185187 3.9509029 1.2741636 43 0 0 1.2035753e-41 0
12.196709 3.9719443 1.4711882 47 0 0 1.2037154e-41 0
12.205204 3.9949493 1.6692102 43 0 0 2 0
12.135453 3.986614 0.68712378 47 0 0 2 0
12.153014 4.0047274 0.88015395 51 0 0 2 0
12.179513 4.0279446 1.0751971 50 0 0 2 0
12.197022 4.050056 1.2722293 42 0 0 2 0
12.202567 4.0690269 1.4692458 45 0 0 2 0
12.221026 4.0951481 1.6692811 43 0 0 2 0
12.143316 4.0837221 0.68218374 48 0 0 1.2048364e-41 0
12.165852 4.1038928 0.87622082 52 0 0 1.2049765e-41 0
12.181387 4.123982 1.0712496 50 0 0 1.2051167e-41 0
12.206871 4.1481862 1.2692921 42 0 0 1.2052568e-41 0
12.216391 4.1692033 1.4673144 43 0 0 1.2053969e-41 0
12.228885 4.1922541 1.6673411 40 0 0 1.2055371e-41 0
12.158145 4.1839118 0.67625356 46 0 0 1.2056772e-41 0
12.175704 4.2020249 0.87028366 51 0 0 1.2058173e-41 0
12.2012 4.2252293 1.0673257 48 0 0 1.2059575e-41 0
12.212733 4.2452703 1.2643498 42 0 0 1.2060976e-41 0
12.229229 4.2683687 1.4633812 42 0 0 1.2062377e-41 0
12.23076 4.2882919 1.6623936 39 0 0 1.2063778e-41 0
12.174973 4.2841258 0.66932565 47 0 0 1.206518e-41 0
12.186543 4.3011684 0.86434823 48 0 0 1.2066581e-41 0
12.213053 4.3233843 1.061391 48 0 0 1.2067982e-41 0
12.232548 4.3465185 1.259426 43 0 0 1.2069384e-41 0
12.233104 4.36443 1.4574362 40 0 0 1.2070785e-41 0
12.258535 4.3926315 1.6604806 38 0 0 1.2072186e-41 0
12.180851 4.3802118 0.66138285 44 0 0 1.2073588e-41 0
12.201385 4.4003592 0.8564176 43 0 0 1.2074989e-41 0
12.225893 4.4225516 1.054458 42 0 0 1.207639e-41 0
12.158767 4.4136734 1.2443752 24 0 0 3 0
12.140398 4.425365 1.4393603 39 0 0 3 0
12.128003 4.439126 1.6353531 42 0 0 3 0
12.087142 4.4411335 0.64530575 33 0 0 3 0
12.084785 4.4520135 0.83830899 44 0 0 3 0
12.096344 4.4700561 1.0333321 47 0 0 3 0
12.097926 4.4859805 1.2293425 33 0 0 3 0
12.245833 4.5586133 1.4425529 35 0 0 1.2087601e-41 0
12.191608 4.5578847 1.6364895 27 0 0 1.2089002e-41 0
12.06512 4.5288944 0.63332611 25 0 0 1.2090403e-41 0
12.172278 4.5810552 0.83347845 32 0 0 1.2091804e-41 0
12.15398 4.5867476 1.0274605 28 0 0 1.2093206e-41 0
12.115744 4.5872064 1.2204164 33 0 0 1.2094607e-41 0
12.064535 4.5855145 1.4113561 28 0 0 1.2096008e-41 0
12.010326 4.5837874 1.601292 28 0 0 1.209741e-41 0
12.014256 4.6033182 0.61730617 27 0 0 1.2098811e-41 0
12.00196 4.6090817 0.80929512 28 0 0 1.2100212e-41 0
11.95875 4.6074834 0.99924421 27 0 0 1.2101614e-41 0
11.920528 4.6069441 1.1891997 25 0 0 1.2103015e-41 0
11.884272 4.6094275 1.379159 27 0 0 1.2104416e-41 0
11.826101 4.6046548 1.5670891 26 0 0 1.2105817e-41 0
11.743402 4.591166 0.58998483 20 0 0 1.2107219e-41 0
11.825675 4.634038 0.78410333 27 0 0 1.210862e-41 0
11.785492 4.6304765 0.97205502 27 0 0 1.2110021e-41 0
11.758224 4.6340652 1.1610254 27 0 0 1.2111423e-41 0
11.703057 4.6293297 1.3459588 25 0 0 1.2112824e-41 0
11.653841 4.6286626 1.5319014 26 0 0 1.2114225e-41 0
11.35714 4.5286608 0.55550313 13 0 0 1.2115627e-41 0
11.652406 4.6580296 0.7579146 27 0 0 1.2117028e-41 0
11.615212 4.6555037 0.94387031 30 0 0 1.2118429e-41 0
11.578009 4.6539779 1.1288265 27 0 0 1.211983e-41 0
11.542756 4.6564746 1.3147869 28 0 0 1.2121232e-41 0
11.472666 4.645566 1.4956999 25 0 0 1.2122633e-41 0
10.920187 4.4395609 0.51894861 12 0 0 1.2124034e-41 0
11.481171 4.6790447 0.73172688 27 0 0 1.2125436e-41 0
11.441004 4.6744847 0.91467804 26 0 0 1.2126837e-41 0
11.409778 4.6750298 1.0986423 26 0 0 1.2128238e-41 0
11.356627 4.6693187 1.2795777 28 0 0 1.212964e-41 0
11.317402 4.6697702 1.4625325 25 0 0 1.2131041e-41 0
10.544017 4.3691711 0.48547485 11 0 0 1.2132442e-41 0
11.305995 4.695013 0.70453197 28 0 0 1.2133843e-41 0
11.270807 4.692512 0.88549006 25 0 0 1.2135245e-41 0
11.24556 4.6951284 1.0674623 26 0 0 2 0
11.193422 4.6884303 1.2463984 28 0 0 2 0
11.151203 4.688849 1.4253497 27 0 0 2 0
10.17687 4.2968864 0.45201075 12 0 0 2 0
11.142772 4.7151213 0.67735326 25 0 0 2 0
11.113575 4.7136917 0.85631889 30 0 0 2 0
11.076389 4.7111688 1.0352746 30 0 0 2 0
11.049133 4.7147632 1.2142451 32 0 0 1.2146455e-41 0
10.985049 4.7039261 1.389165 24 0 0 1.2147856e-41 0
9.843627 4.2329979 0.41959065 12 0 0 1.2149258e-41 0
10.842282 4.6726213 0.64098227 16 0 0 1.2150659e-41 0
10.967305 4.7379994 0.82716215 32 0 0 1.215206e-41 0
10.929147 4.7334661 1.0041158 30 0 0 1.2153462e-41 0
10.891952 4.7319441 1.1810719 30 0 0 1.2154863e-41 0
10.840809 4.7262597 1.3550097 29 0 0 1.2156264e-41 0
9.5014868 4.1600027 0.38815567 12 0 0 1.2157665e-41 0
10.448336 4.5840244 0.59847867 11 0 0 1.2159067e-41 0
10.803167 4.7510972 0.79697895 29 0 0 1.2160468e-41 0
10.774963 4.7506814 0.97194624 30 0 0 1.2161869e-41 0
10.734806 4.7461252 1.1468974 29 0 0 1.2163271e-41 0
10.69064 4.7425232 1.3198445 30 0 0 1.2164672e-41 0
9.1703577 4.0861359 0.35773316 12 0 0 1.2166073e-41 0
10.096251 4.5069165 0.56002992 12 0 0 1.2167475e-41 0
10.655994 4.7673931 0.76681721 30 0 0 1.2168876e-41 0
10.61984 4.7628851 0.9397732 30 0 0 1.2170277e-41 0
10.588637 4.762435 1.1127371 30 0 0 1.2171678e-41 0
10.545474 4.7588453 1.2836852 29 0 0 1.217308e-41 0
8.8631687 4.017549 0.32734141 11 0 0 1.2174481e-41 0
9.730299 4.4186454 0.52055949 12 0 0 1.2175882e-41 0
10.515795 4.7857699 0.73766476 30 0 0 1.2177284e-41 0
10.481653 4.7802868 0.90862262 30 0 0 1.2178685e-41 0
10.448466 4.7788143 1.0795836 28 0 0 1.2180086e-41 0
10.408292 4.7762599 1.2495358 28 0 0 1.2181488e-41 0
8.5709639 3.9501362 0.29896784 9 0 0 1.2182889e-41 0
9.4002237 4.3407927 0.48413628 11 0 0 1.218429e-41 0
10.334849 4.78267 0.70445383 21 0 0 1.2185691e-41 0
10.357396 4.8038521 0.87749147 31 0 0 1.2187093e-41 0
10.308309 4.7941933 1.0454297 29 0 0 1.2188494e-41 0
10.275111 4.7937222 1.2143911 28 0 0 1.2189895e-41 0
8.4727316 3.970999 0.27686593 10 0 0 1.2191297e-41 0
9.0443516 4.2456365 0.44567418 12 0 0 1.2192698e-41 0
9.9699516 4.6904135 0.65798265 12 0 0 1.2194099e-41 0
10.222236 4.8192887 0.84534365 29 0 0 1.2195501e-41 0
10.1841 4.8137593 1.0122967 29 0 0 1.2196902e-41 0
10.147919 4.8122535 1.1792542 28 0 0 1.2198303e-41 0
8.5187216 4.0585551 0.25896654 10 0 0 1.2199704e-41 0
8.7512007 4.1742144 0.41129756 12 0 0 1.2201106e-41 0
9.6260128 4.6014004 0.61453766 10 0 0 1.2202507e-41 0
10.095062 4.8358188 0.8132056 30 0 0 1.2203908e-41 0
10.05494 4.829267 0.97915584 29 0 0 1.220531e-41 0
10.015784 4.8257265 1.1441089 27 0 0 1.2206711e-41 0
8.5259256 4.1276565 0.24001244 11 0 0 1.2208112e-41 0
8.4909039 4.1151762 0.37996569 10 0 0 1.2209514e-41 0
9.2692175 4.5002351 0.57107157 11 0 0 1.2210915e-41 0
9.9758644 4.8544421 0.78207803 29 0 0 1.2212316e-41 0
9.9258165 4.8417745 0.94501358 29 0 0 1.2213717e-41 0
9.9005995 4.8433976 1.1099855 28 0 0 2 0
8.5251923 4.1916647 0.21904652 10 0 0 2 0
8.5398827 4.2037678 0.36207035 9 0 0 2 0
8.9562292 4.4155822 0.52966511 11 0 0 2 0
9.8030148 4.8434362 0.74587274 19 0 0 2 0
9.8096313 4.8594337 0.91188914 26 0 0 2 0
9.7794533 4.8579998 1.0748537 27 0 0 2 0
8.5294228 4.2587314 0.19808789 9 0 0 1.2224928e-41 0
8.546113 4.2708583 0.34111407 9 0 0 1.2226329e-41 0
8.6442852 4.3269401 0.49025786 10 0 0 1.222773e-41 0
9.4751053 4.7526112 0.69744569 11 0 0 1.2229132e-41 0
9.6984587 4.8761511 0.87877005 30 0 0 1.2230533e-41 0
9.6484032 4.8644848 1.037706 26 0 0 1.2231934e-41 0
8.5356436 4.3268218 0.17613222 8 0 0 1.2233336e-41 0
8.5463657 4.3358779 0.32014987 9 0 0 1.2234737e-41 0
8.526248 4.3315721 0.46212471 8 0 0 1.2236138e-41 0
9.1492529 4.6568093 0.65101862 11 0 0 1.2237539e-41 0
9.5892963 4.8918915 0.84565288 28 0 0 1.2238941e-41 0
9.5362663 4.878191 1.0035844 28 0 0 1.2240342e-41 0
8.4285536 4.3355818 0.151014 14 0 0 1.2241743e-41 0
8.5506105 4.4019461 0.29719087 8 0 0 1.2243145e-41 0
8.5672865 4.4150715 0.44221762 10 0 0 1.2244546e-41 0
8.8105307 4.5498543 0.60457087 10 0 0 1.2245947e-41 0
9.4672184 4.9004803 0.811517 28 0 0 1.2247349e-41 0
9.433094 4.8950019 0.96947485 31 0 0 1.224875e-41 0
8.3512983 4.3586907 0.12693797 32 0 0 1.2250151e-41 0
8.5588322 4.4700608 0.27423763 7 0 0 1.2251552e-41 0
8.5874348 4.489326 0.42028138 9 0 0 1.2252954e-41 0
8.5653133 4.4849954 0.56425387 8 0 0 1.2254355e-41 0
9.3461771 4.9060812 0.77638084 19 0 0 1.2255756e-41 0
9.3249683 4.9077549 0.93435746 28 0 0 1.2257158e-41 0
8.2859955 4.385941 0.10187807 38 0 0 1.2258559e-41 0
8.5601006 4.5340943 0.25027418 7 0 0 1.225996e-41 0
8.579751 4.5492539 0.39630538 6 0 0 1.2261362e-41 0
8.5874615 4.5592737 0.54232007 7 0 0 1.2262763e-41 0
8.9916277 4.7849426 0.72290748 11 0 0 1.2264164e-41 0
9.2387476 4.9287639 0.90126991 29 0 0 1.2265565e-41 0
8.8060312 4.7280784 0.082662113 15 0 0 1.2266967e-41 0
8.5603819 4.5971165 0.22530909 6 0 0 1.2268368e-41 0
8.5800447 4.6112761 0.3713398 7 0 0 1.2269769e-41 0
8.596693 4.6264005 0.51936752 8 0 0 1.2271171e-41 0
8.6838598 4.6823511 0.67349839 10 0 0 1.2272572e-41 0
9.1396322 4.9406219 0.86716264 30 0 0 2 0
8.5976334 4.6776452 0.054395568 13 0 0 2 0
8.57658 4.667326 0.20036629 7 0 0 2 0
8.5952415 4.6814737 0.34739584 7 0 0 2 0
8.5959978 4.6874108 0.49440026 7 0 0 2 0
8.5738754 4.6830792 0.64037281 7 0 0 2 0
9.0494938 4.9545851 0.833067 25 0 0 2 0
8.6505833 4.7692885 0.028506603 16 0 0 1.2283782e-41 0
8.5878143 4.734478 0.17441614 6 0 0 1.2285184e-41 0
8.586607 4.7373919 0.32141677 6 0 0 1.2286585e-41 0
