# .PCD v0.7 - Point Cloud Data file format
VERSION 0.7
FIELDS x y z intensity normal_x normal_y normal_z curvature
SIZE 4 4 4 4 4 4 4 4
TYPE F F F F F F F F
COUNT 1 1 1 1 1 1 1 1
WIDTH 921
HEIGHT 1
VIEWPOINT 0 0 0 1 0 0 0
POINTS 921
DATA ascii
19.691629 -5.2105803 -1.7036034 54 0 0 5.9387029e-42 0
20.032436 -5.3684883 -1.4651647 49 0 0 5.9401042e-42 0
52.055229 -17.613668 -2.968452 73 0 0 5.9415055e-42 0
34.826973 -11.104532 -1.4930148 56 0 0 5.9429068e-42 0
16.689528 -4.1319251 -1.8497279 66 0 0 5.9443081e-42 0
18.334572 -4.7846389 -1.808584 53 0 0 5.9457094e-42 0
19.583097 -5.2919717 -1.67527 54 0 0 5.9471107e-42 0
19.853584 -5.4255972 -1.4320302 51 0 0 5.948512e-42 0
18.233971 -4.8546896 -0.83458018 15 0 0 5.9499133e-42 0
16.3598 -4.1016226 -1.7950203 60 0 0 5.9513146e-42 0
18.517616 -4.9693303 -1.8084097 58 0 0 5.9527159e-42 0
19.969564 -5.566329 -1.6874734 46 0 0 5.9541172e-42 0
19.958513 -5.5926704 -1.4166719 52 0 0 5.9555185e-42 0
34.782791 -11.516982 -1.923946 46 0 0 5.9569198e-42 0
33.553692 -11.090121 -1.3549998 8 0 0 5.9583211e-42 0
16.032515 -4.0698142 -1.7394378 68 0 0 5.9597224e-42 0
18.807865 -5.200489 -1.81838 46 0 0 5.9611237e-42 0
19.653437 -5.5665002 -1.6376979 45 0 0 5.962525e-42 0
19.972103 -5.7248545 -1.3926675 49 0 0 5.9639263e-42 0
32.69463 -10.913013 -1.7672778 36 0 0 1 0
33.401329 -11.261718 -1.2992398 36 0 0 5.9667289e-42 0
15.969702 -4.1374669 -1.714964 69 0 0 5.9681302e-42 0
18.963135 -5.3782682 -1.8119845 54 0 0 5.9695315e-42 0
19.783085 -5.7419357 -1.6243744 50 0 0 5.9709328e-42 0
19.954857 -5.8443127 -1.3650504 50 0 0 5.9723341e-42 0
32.862606 -11.2117 -1.7264316 29 0 0 5.9737354e-42 0
18.048454 -5.1176829 -0.75621092 2 0 0 1 0
16.051476 -4.2667217 -1.705795 61 0 0 1 0
19.186619 -5.5901046 -1.8105419 54 0 0 5.9779392e-42 0
19.57147 -5.7788568 -1.580236 47 0 0 5.9793405e-42 0
20.003546 -5.9902124 -1.3399802 32 0 0 5.9807418e-42 0
33.322166 -11.635487 -1.6933573 12 0 0 5.9821431e-42 0
18.018906 -5.2181306 -0.72812241 16 0 0 5.9835444e-42 0
19.391104 -5.7969093 -1.8035661 52 0 0 5.9849457e-42 0
19.964272 -6.0700631 -1.5833863 45 0 0 5.986347e-42 0
20.01248 -6.1225133 -1.3096261 7 0 0 5.9877483e-42 0
26.477512 -8.9318581 -1.3255042 6 0 0 5.9891496e-42 0
17.969032 -5.3091273 -0.69727749 37 0 0 5.9905509e-42 0
19.481356 -5.9578323 -1.7829499 44 0 0 5.9919522e-42 0
19.765547 -6.1097913 -1.5372514 48 0 0 5.9933535e-42 0
20.173189 -6.3191032 -1.2871529 2 0 0 5.9947548e-42 0
17.883972 -5.352026 -0.90615666 11 0 0 1 0
17.701454 -5.3031998 -0.6598255 34 0 0 5.9975574e-42 0
16.987978 -4.9609132 -1.745464 51 0 0 5.9989587e-42 0
19.437462 -6.0603967 -1.7488819 48 0 0 6.00036e-42 0
19.715527 -6.2131195 -1.5007609 49 0 0 6.0017613e-42 0
17.723238 -5.3623385 -1.109592 0 0 0 1 0
17.748682 -5.4032216 -0.86994761 34 0 0 6.0045639e-42 0
18.189701 -5.6317053 -0.63888967 4 0 0 6.0059652e-42 0
17.352022 -5.2242708 -1.7597272 65 0 0 6.0073665e-42 0
17.619572 -5.3690257 -1.549723 57 0 0 1 0
17.665617 -5.4173431 -1.3147986 61 0 0 1 0
17.694126 -5.4578443 -1.0763657 56 0 0 1 0
17.725836 -5.5031524 -0.83630538 36 0 0 1 0
17.740627 -5.541769 -0.59482223 46 0 0 6.014373e-42 0
17.885426 -5.5730033 -1.7878003 50 0 0 6.0157743e-42 0
17.635916 -5.485517 -1.5204127 1 0 0 1 0
17.611444 -5.5013461 -1.2794152 0 0 0 1 0
24.304953 -8.6502934 -1.0383822 32 0 0 6.0199782e-42 0
17.407763 -5.4972849 -0.5534901 1 0 0 6.0213795e-42 0
18.556721 -5.9921899 -1.8269609 36 0 0 6.0227808e-42 0
20.97238 -7.1394048 -1.7782764 36 0 0 6.0241821e-42 0
20.902567 -7.1413336 -1.4734073 32 0 0 6.0255834e-42 0
20.865816 -7.1605859 -1.1704471 58 0 0 6.0269847e-42 0
24.075232 -8.7060757 -0.97747922 18 0 0 6.028386e-42 0
18.038954 -5.8656306 -1.7387068 14 0 0 6.0297873e-42 0
20.592617 -7.0955315 -1.7055099 36 0 0 6.0311886e-42 0
20.527254 -7.0993896 -1.4040293 33 0 0 6.0325899e-42 0
20.827784 -7.2789359 -1.1232463 39 0 0 6.0339912e-42 0
14.704202 -4.4162884 -0.44413459 1 0 0 1 0
17.797264 -5.8615146 -1.6800992 2 0 0 1 0
20.231663 -7.0546803 -1.6331847 30 0 0 6.0381951e-42 0
20.178335 -7.0620461 -1.3386956 33 0 0 6.0395964e-42 0
20.829365 -7.4129605 -1.0773712 8 0 0 1 0
14.524745 -4.4139323 -0.41111472 44 0 0 6.042399e-42 0
19.943684 -7.0117712 -1.8519086 33 0 0 6.0438003e-42 0
19.8829 -7.0144114 -1.5607498 28 0 0 6.0452016e-42 0
20.118662 -7.162468 -1.289384 46 0 0 6.0466029e-42 0
23.741407 -8.9792309 -1.153582 45 0 0 6.0480042e-42 0
14.728951 -4.5740714 -0.57419264 4 0 0 6.0494055e-42 0
14.393818 -4.434319 -0.37727049 51 0 0 6.0508068e-42 0
19.678328 -7.0067992 -1.7835504 77 0 0 6.0522081e-42 0
19.699677 -7.0484586 -1.5025107 80 0 0 6.0536094e-42 0
20.220221 -7.3404665 -1.2480419 68 0 0 6.0550107e-42 0
23.899126 -9.2155485 -1.1000288 53 0 0 6.056412e-42 0
20.695972 -7.6544328 -0.66805065 0 0 0 6.0578133e-42 0
14.413553 -4.5270586 -0.34345296 42 0 0 6.0592146e-42 0
19.661335 -7.1225142 -1.7367758 75 0 0 6.0606159e-42 0
19.685472 -7.1658092 -1.4549838 68 0 0 6.0620172e-42 0
20.277918 -7.4998822 -1.2019693 1 0 0 6.0634185e-42 0
14.962339 -4.838099 -0.70949304 9 0 0 6.0648198e-42 0
14.548357 -4.6539102 -0.50151616 42 0 0 1 0
14.459672 -4.6357212 -0.30901498 53 0 0 6.0676224e-42 0
19.594025 -7.2121453 -1.6835704 33 0 0 6.0690236e-42 0
19.319815 -7.1045389 -1.3806821 6 0 0 6.0704249e-42 0
15.030905 -4.9351773 -0.87792325 46 0 0 1 0
14.651193 -4.765626 -0.66383445 21 0 0 6.0732275e-42 0
14.448698 -4.6872082 -0.4653022 55 0 0 6.0746288e-42 0
14.498556 -4.7408204 -0.27193996 58 0 0 6.0760301e-42 0
19.048729 -7.053134 -1.5903248 0 0 0 6.0774314e-42 0
19.023569 -7.0714302 -1.3122406 4 0 0 6.0788327e-42 0
14.934873 -4.9723964 -0.83707702 44 0 0 6.080234e-42 0
14.595262 -4.8206534 -0.62541795 44 0 0 6.0816353e-42 0
14.398616 -4.7434878 -0.42734465 54 0 0 6.0830366e-42 0
14.476735 -4.8134103 -0.23451218 54 0 0 3 0
14.582769 -4.82586 -1.175367 3 0 0 3 0
14.7076 -4.9149599 -0.98849159 4 0 0 3 0
14.656464 -4.911119 -0.78809953 50 0 0 3 0
14.467767 -4.8367558 -0.58566868 23 0 0 3 0
14.391623 -4.82336 -0.39020464 57 0 0 3 0
14.389757 -4.8504925 -0.19631767 56 0 0 3 0
14.553016 -4.8926611 -1.13719 38 0 0 6.094247e-42 0
14.436794 -4.8533435 -0.93503439 61 0 0 6.0956483e-42 0
14.408345 -4.8614736 -0.73965228 44 0 0 6.0970496e-42 0
14.408638 -4.8880458 -0.54590327 51 0 0 6.0984509e-42 0
14.642978 -5.0427732 -0.3528803 58 0 0 6.0998522e-42 0
14.562175 -5.0284257 -0.15404251 34 0 0 6.1012535e-42 0
14.501127 -4.9485855 -1.0970854 47 0 0 6.1026548e-42 0
14.693546 -5.0757427 -0.91223347 65 0 0 3 0
14.549762 -5.0223403 -0.70766062 57 0 0 3 0
14.635758 -5.0950332 -0.51146811 57 0 0 3 0
14.44908 -5.0200491 -0.31116873 46 0 0 3 0
15.093406 -5.4076076 -0.10065253 56 0 0 3 0
14.562977 -5.0647082 -1.0640091 40 0 0 3 0
14.746978 -5.1890697 -0.87645948 52 0 0 3 0
14.427922 -5.0376859 -0.66327858 60 0 0 6.1138652e-42 0
14.551852 -5.1338735 -0.46853328 60 0 0 6.1152665e-42 0
14.955436 -5.387598 -0.26666492 40 0 0 6.1166678e-42 0
14.805381 -5.3348975 -0.061662566 59 0 0 6.1180691e-42 0
14.496131 -5.1103015 -1.0205033 56 0 0 6.1194704e-42 0
14.49463 -5.1324606 -0.82247674 56 0 0 6.1208717e-42 0
14.478855 -5.1495018 -0.62426871 61 0 0 6.122273e-42 0
14.457511 -5.1643434 -0.42458922 58 0 0 6.1236743e-42 0
14.91908 -5.4540987 -0.22198536 44 0 0 6.1250756e-42 0
14.575074 -5.2899814 -0.021662153 29 0 0 6.1264769e-42 0
14.543579 -5.218257 -0.98413301 25 0 0 1 0
14.478947 -5.2064271 -0.78152001 34 0 0 6.1292795e-42 0
14.561116 -5.2783151 -0.58402449 22 0 0 6.1306808e-42 0
14.419139 -5.2252684 -0.38159797 58 0 0 1 0
14.376493 -5.2293801 -0.18206125 59 0 0 6.1334834e-42 0
14.441117 -5.2985797 0.019788127 53 0 0 6.1348847e-42 0
16.964874 -6.6855326 -1.0882298 31 0 0 6.136286e-42 0
14.433826 -5.2607946 -0.73784089 3 0 0 1 0
14.661547 -5.4182086 -0.54342312 2 0 0 6.1390886e-42 0
14.243261 -5.2647357 0.059120294 3 0 0 6.1404899e-42 0
16.757917 -6.6644101 -1.0255692 29 0 0 6.1418912e-42 0
26.443047 -12.33255 -1.1408049 1 0 0 3 0
14.788222 -5.5750327 -0.50121987 8 0 0 3 0
15.379407 -5.9521666 -0.29057619 39 0 0 3 0
14.987335 -5.7533212 -0.07870122 12 0 0 3 0
14.21917 -5.3318496 0.10490636 45 0 0 3 0
16.569481 -6.6523809 -0.96351755 12 0 0 3 0
42.104992 -21.748947 -1.558919 46 0 0 3 0
42.118702 -21.856409 -0.81695664 70 0 0 6.1531016e-42 0
15.117802 -5.8842783 -0.24159665 47 0 0 6.1545029e-42 0
14.175241 -5.386518 0.15150054 41 0 0 6.1559042e-42 0
16.340124 -6.6121445 -0.89865446 0 0 0 6.1573055e-42 0
16.234917 -6.5788693 -0.65735394 10 0 0 1 0
15.865957 -6.3885355 -0.41530523 23 0 0 6.160108e-42 0
15.002936 -5.9022174 -0.19278005 54 0 0 6.1615093e-42 0
14.228542 -5.46522 -0.00021878912 41 0 0 6.1629106e-42 0
16.090656 -6.5552831 -0.83484006 24 0 0 6.1643119e-42 0
16.051849 -6.5597644 -0.59847748 23 0 0 6.1657132e-42 0
15.142931 -6.0402975 -0.35858718 64 0 0 6.1671145e-42 0
14.87506 -5.909174 -0.14369126 46 0 0 6.1685158e-42 0
13.815111 -5.29178 0.034856424 50 0 0 6.1699171e-42 0
15.913372 -6.5384703 -0.77444381 22 0 0 6.1713184e-42 0
15.872261 -6.5434504 -0.53993702 24 0 0 6.1727197e-42 0
15.33679 -6.2465401 -0.3056908 43 0 0 6.174121e-42 0
14.003955 -5.4540181 -0.10912927 56 0 0 6.1755223e-42 0
13.006211 -4.865087 0.051027536 72 0 0 6.1769236e-42 0
12.62505 -4.6575208 0.20822506 46 0 0 6.1783249e-42 0
15.737554 -6.5199432 -0.71309644 22 0 0 6.1797262e-42 0
15.695465 -6.5236444 -0.48148894 23 0 0 6.1811275e-42 0
12.625211 -4.6410513 -0.26573119 44 0 0 2 0
12.570611 -4.6329365 -0.095047913 53 0 0 2 0
12.528185 -4.6345878 0.074458279 53 0 0 2 0
12.487572 -4.6376648 0.24479334 50 0 0 2 0
12.561091 -4.6206074 -0.56342036 52 0 0 2 0
12.533363 -4.6254215 -0.3940658 57 0 0 2 0
12.49547 -4.6249752 -0.22482075 55 0 0 2 0
12.445252 -4.6198292 -0.055547319 55 0 0 6.1923379e-42 0
12.409232 -4.6248965 0.11339286 53 0 0 6.1937392e-42 0
12.359425 -4.6218524 0.28056592 52 0 0 6.1951405e-42 0
12.442845 -4.6090846 -0.52046788 52 0 0 6.1965418e-42 0
12.40683 -4.6090255 -0.35237285 55 0 0 6.1979431e-42 0
12.374366 -4.6117873 -0.18361728 54 0 0 6.1993444e-42 0
12.331383 -4.6102047 -0.016980059 55 0 0 6.2007457e-42 0
12.2845 -4.6077867 0.14996342 52 0 0 2 0
12.244437 -4.6119576 0.31721595 49 0 0 2 0
12.321119 -4.5947719 -0.47717857 51 0 0 2 0
12.290671 -4.5969124 -0.31055495 54 0 0 2 0
12.260779 -4.6012163 -0.14403795 55 0 0 2 0
12.209722 -4.5937829 0.02135464 55 0 0 2 0
12.168056 -4.5955501 0.18779375 50 0 0 2 0
12.118871 -4.5936308 0.35288152 48 0 0 6.2119561e-42 0
12.21019 -4.582787 -0.43373442 51 0 0 6.2133574e-42 0
12.1796 -4.584866 -0.2691046 54 0 0 6.2147587e-42 0
12.146638 -4.5884814 -0.1043516 52 0 0 6.21616e-42 0
12.096484 -4.5812263 0.059967488 53 0 0 6.2175613e-42 0
12.061152 -4.58638 0.22484358 49 0 0 6.2189626e-42 0
12.010155 -4.583034 0.38910285 46 0 0 6.2203639e-42 0
12.111093 -4.5774269 -0.39134547 48 0 0 6.2217652e-42 0
12.072215 -4.5746322 -0.2279751 54 0 0 6.2231665e-42 0
12.03842 -4.5770316 -0.06412755 51 0 0 6.2245678e-42 0
12.008865 -4.5834064 0.099292316 59 0 0 6.2259691e-42 0
12.019547 -4.6189742 0.26694083 60 0 0 6.2273704e-42 0
11.906032 -4.5744286 0.42392963 43 0 0 6.2287717e-42 0
12.004202 -4.565269 -0.34918872 48 0 0 6.230173e-42 0
12.002285 -4.5857601 -0.1871898 61 0 0 6.2315743e-42 0
12.008165 -4.6141176 -0.021982184 62 0 0 6.2329756e-42 0
11.998242 -4.634985 0.14359026 11 0 0 6.2343769e-42 0
11.95915 -4.6382942 0.30779088 6 0 0 6.2357782e-42 0
11.826214 -4.578279 0.46264204 37 0 0 6.2371795e-42 0
11.985779 -4.6089807 -0.30809915 52 0 0 6.2385808e-42 0
11.97753 -4.6260853 -0.14453702 8 0 0 6.2399821e-42 0
11.95069 -4.6340642 0.018638073 3 0 0 6.2413834e-42 0
11.89594 -4.6237483 0.1813767 4 0 0 6.2427847e-42 0
11.862277 -4.6302657 0.34508777 7 0 0 6.244186e-42 0
11.720219 -4.5641603 0.4977743 23 0 0 6.2455873e-42 0
11.918916 -4.6207962 -0.26554918 3 0 0 6.2469886e-42 0
11.879132 -4.6167536 -0.10408098 2 0 0 6.2483899e-42 0
11.862459 -4.629993 0.059203584 12 0 0 6.2497912e-42 0
11.833671 -4.6375546 0.22253193 14 0 0 6.2511924e-42 0
11.7109 -4.5827994 0.3774929 22 0 0 6.2525937e-42 0
11.609073 -4.544817 0.53143269 34 0 0 6.253995e-42 0
11.832914 -4.6161957 -0.22412458 14 0 0 6.2553963e-42 0
11.824311 -4.6342163 -0.062571265 30 0 0 6.2567976e-42 0
11.789398 -4.6363449 0.099359326 13 0 0 6.2581989e-42 0
11.71571 -4.6126924 0.25885686 6 0 0 6.2596002e-42 0
11.586742 -4.5524735 0.41142347 34 0 0 6.2610015e-42 0
11.52 -4.5384588 0.56811786 41 0 0 6.2624028e-42 0
11.758397 -4.6202064 -0.1827887 13 0 0 6.2638041e-42 0
11.735737 -4.6270041 -0.021883626 12 0 0 6.2652054e-42 0
11.698174 -4.6264892 0.13831303 12 0 0 6.2666067e-42 0
11.609099 -4.5923219 0.29523015 5 0 0 6.268008e-42 0
11.491824 -4.5397358 0.44772318 36 0 0 6.2694093e-42 0
11.431416 -4.5291071 0.60285449 39 0 0 6.2708106e-42 0
11.674767 -4.614069 -0.14148675 12 0 0 6.2722119e-42 0
11.645559 -4.6173887 0.017990602 12 0 0 6.2736132e-42 0
11.615238 -4.6215076 0.17852652 13 0 0 6.2750145e-42 0
11.523306 -4.5856748 0.33369482 5 0 0 6.2764158e-42 0
11.406862 -4.533236 0.48411748 36 0 0 6.2778171e-42 0
11.343668 -4.5209727 0.63849664 33 0 0 6.2792184e-42 0
11.587869 -4.6041641 -0.099833049 13 0 0 6.2806197e-42 0
11.561094 -4.6100345 0.058387607 12 0 0 6.282021e-42 0
11.537941 -4.6187563 0.21826586 14 0 0 6.2834223e-42 0
11.441411 -4.5798626 0.37185323 7 0 0 6.2848236e-42 0
11.318771 -4.5219603 0.51988137 36 0 0 6.2862249e-42 0
11.261841 -4.5141215 0.67467654 34 0 0 6.2876262e-42 0
11.506328 -4.5974364 -0.059665658 13 0 0 6.2890275e-42 0
11.458183 -4.5874195 0.096570715 5 0 0 6.2904288e-42 0
11.393608 -4.5677185 0.25228208 4 0 0 6.2918301e-42 0
11.309122 -4.5344715 0.40482882 18 0 0 6.2932314e-42 0
11.222049 -4.5026703 0.55450809 36 0 0 6.2946327e-42 0
11.173888 -4.5018377 0.70945907 38 0 0 6.296034e-42 0
11.380662 -4.5566244 -0.021289529 3 0 0 6.2974353e-42 0
11.346715 -4.5568218 0.13461328 8 0 0 6.2988366e-42 0
11.327662 -4.5694585 0.29206958 4 0 0 6.3002379e-42 0
11.197368 -4.5037508 0.43888387 31 0 0 6.3016392e-42 0
11.140855 -4.492887 0.59073347 39 0 0 6.3030405e-42 0
11.08371 -4.4849558 0.74253792 38 0 0 6.3044418e-42 0
11.315762 -4.5586042 0.019418422 3 0 0 6.3058431e-42 0
11.288981 -4.5634046 0.17466363 5 0 0 6.3072444e-42 0
11.283153 -4.5860467 0.3318629 7 0 0 6.3086457e-42 0
11.114782 -4.4905868 0.47431073 35 0 0 6.310047e-42 0
11.060773 -4.4823046 0.62590063 40 0 0 6.3114483e-42 0
11.012608 -4.480402 0.7778762 38 0 0 6.3128496e-42 0
11.274669 -4.573895 0.060009107 6 0 0 6.3142509e-42 0
11.287843 -4.6088338 0.2184706 10 0 0 6.3156522e-42 0
11.198206 -4.570363 0.36954358 4 0 0 6.3170535e-42 0
11.044798 -4.4863033 0.51156628 35 0 0 6.3184548e-42 0
10.992529 -4.4794164 0.66298801 40 0 0 6.3198561e-42 0
10.949654 -4.48173 0.81545609 36 0 0 6.3212574e-42 0
11.265526 -4.6135039 0.10356857 19 0 0 6.3226587e-42 0
11.249398 -4.6267672 0.26079533 23 0 0 6.32406e-42 0
11.088479 -4.5349636 0.4035978 5 0 0 6.3254613e-42 0
10.976139 -4.4802432 0.54777843 38 0 0 6.3268626e-42 0
10.917533 -4.4689007 0.69778776 40 0 0 6.3282639e-42 0
10.873611 -4.4709749 0.84933549 37 0 0 6.3296652e-42 0
11.209471 -4.6173944 0.14458492 15 0 0 6.3310665e-42 0
11.176428 -4.6177697 0.29941443 15 0 0 6.3324678e-42 0
10.961282 -4.4845128 0.43536171 23 0 0 6.3338691e-42 0
10.89871 -4.4671769 0.58383524 40 0 0 6.3352704e-42 0
10.848874 -4.4628406 0.73400027 40 0 0 6.3366717e-42 0
10.811218 -4.4693398 0.88596386 32 0 0 6.338073e-42 0
11.138523 -4.6088457 0.18404762 16 0 0 6.3394743e-42 0
11.110909 -4.6124282 0.33838767 13 0 0 6.3408756e-42 0
10.882253 -4.4690437 0.47060469 35 0 0 6.3422768e-42 0
10.8304 -4.4591317 0.61908102 43 0 0 6.3436781e-42 0
10.786065 -4.4580336 0.76975352 40 0 0 6.3450794e-42 0
10.766926 -4.4798236 0.92492807 25 0 0 6.3464807e-42 0
11.091244 -4.614615 0.22437496 13 0 0 6.347882e-42 0
10.996734 -4.5689034 0.37201038 6 0 0 6.3492833e-42 0
10.818961 -4.4621034 0.50746155 35 0 0 6.3506846e-42 0
10.768638 -4.4545641 0.65575457 42 0 0 6.3520859e-42 0
10.721444 -4.4518008 0.80467826 39 0 0 6.3534872e-42 0
10.740596 -4.5034347 0.96720994 10 0 0 6.3548885e-42 0
11.012015 -4.596066 0.26173353 14 0 0 6.3562898e-42 0
10.880122 -4.5217581 0.4039143 3 0 0 6.3576911e-42 0
10.759431 -4.4570069 0.54499412 34 0 0 2 0
10.718851 -4.4566832 0.69336647 41 0 0 2 0
10.65822 -4.4438219 0.83955652 38 0 0 2 0
10.717264 -4.5277028 1.0102589 5 0 0 2 0
10.949077 -4.5882101 0.30059928 15 0 0 2 0
10.771172 -4.4772916 0.4361876 9 0 0 2 0
10.699966 -4.4508719 0.58054799 35 0 0 2 0
10.648598 -4.4430928 0.72792083 42 0 0 6.3689015e-42 0
10.602307 -4.4405074 0.87577099 38 0 0 6.3703028e-42 0
10.722547 -4.5735617 1.0586071 7 0 0 6.3717041e-42 0
10.885723 -4.5771823 0.33859 15 0 0 6.3731054e-42 0
10.691595 -4.4545317 0.47069281 31 0 0 6.3745067e-42 0
10.640714 -4.443759 0.616117 42 0 0 6.375908e-42 0
10.593799 -4.4389787 0.76307696 42 0 0 6.3773093e-42 0
10.546534 -4.4361849 0.91100383 36 0 0 6.3787106e-42 0
10.698871 -4.5946884 1.1017784 10 0 0 6.3801119e-42 0
10.812695 -4.5579009 0.3745226 10 0 0 6.3815132e-42 0
10.618632 -4.4342113 0.50464696 37 0 0 6.3829145e-42 0
10.586408 -4.4377208 0.6523 41 0 0 6.3843158e-42 0
10.53413 -4.4286942 0.79777098 42 0 0 6.3857171e-42 0
10.502736 -4.4385481 0.94717467 23 0 0 6.3871184e-42 0
10.649224 -4.595799 1.1384085 11 0 0 6.3885197e-42 0
10.697484 -4.5038824 0.4055357 4 0 0 6.389921e-42 0
10.566486 -4.4276137 0.54069197 35 0 0 6.3913223e-42 0
10.535027 -4.4323096 0.68825358 41 0 0 6.3927236e-42 0
10.482467 -4.4242291 0.83271259 40 0 0 6.3941249e-42 0
10.520205 -4.4901147 0.99647611 10 0 0 6.3955262e-42 0
10.491806 -4.5068221 1.1504681 1 0 0 6.3969275e-42 0
10.62599 -4.4818468 0.44044039 5 0 0 6.3983288e-42 0
10.517891 -4.4238367 0.57739758 35 0 0 6.3997301e-42 0
10.482597 -4.4266586 0.72328687 37 0 0 6.4011314e-42 0
10.436587 -4.4220567 0.86917359 39 0 0 6.4025327e-42 0
10.491656 -4.5040016 1.0362096 4 0 0 6.403934e-42 0
10.434228 -4.4959469 1.1840274 2 0 0 6.4053353e-42 0
10.524563 -4.4348712 0.47024474 22 0 0 6.4067366e-42 0
10.471384 -4.4194694 0.61296839 41 0 0 6.4081379e-42 0
10.42899 -4.4166493 0.75753671 41 0 0 6.4095392e-42 0
10.388059 -4.4172406 0.90390068 36 0 0 6.4109405e-42 0
10.4432 -4.4992166 1.0719334 3 0 0 6.4123418e-42 0
10.388065 -4.4947209 1.2194768 3 0 0 6.4137431e-42 0
10.464136 -4.4182734 0.50418562 32 0 0 6.4151444e-42 0
10.424878 -4.415102 0.64853913 43 0 0 6.4165457e-42 0
10.395085 -4.4211626 0.79493582 40 0 0 6.417947e-42 0
10.351368 -4.4201193 0.9405477 33 0 0 6.4193483e-42 0
10.393072 -4.4919972 1.1058469 3 0 0 6.4207496e-42 0
10.346849 -4.4945693 1.2555401 2 0 0 6.4221509e-42 0
10.417286 -4.4107647 0.53987825 32 0 0 6.4235522e-42 0
10.385057 -4.4132047 0.68455571 42 0 0 6.4249535e-42 0
10.347744 -4.4155779 0.82960153 39 0 0 6.4263548e-42 0
10.348372 -4.4497805 0.98297083 17 0 0 6.4277561e-42 0
10.367105 -4.5033689 1.1454726 3 0 0 6.4291574e-42 0
10.30995 -4.498425 1.2921722 4 0 0 6.4305587e-42 0
10.375726 -4.4074726 0.57606304 31 0 0 6.43196e-42 0
10.339875 -4.4070606 0.71908331 42 0 0 6.4333612e-42 0
10.308134 -4.4127035 0.86563331 35 0 0 6.4347625e-42 0
10.351784 -4.4839287 1.0278035 8 0 0 6.4361638e-42 0
10.313777 -4.4913435 1.1777589 3 0 0 6.4375651e-42 0
10.308145 -4.5283875 1.3375096 4 0 0 6.4389664e-42 0
10.341616 -4.407836 0.61260217 30 0 0 6.4403677e-42 0
10.310291 -4.4104543 0.75620633 40 0 0 6.441769e-42 0
10.264066 -4.4057593 0.89910257 37 0 0 6.4431703e-42 0
10.318511 -4.4855094 1.0652479 3 0 0 6.4445716e-42 0
10.311345 -4.5191116 1.2222061 5 0 0 6.4459729e-42 0
10.307385 -4.5585899 1.3837676 8 0 0 6.4473742e-42 0
10.309668 -4.40764 0.64900297 29 0 0 6.4487755e-42 0
10.268245 -4.4039588 0.79051918 41 0 0 6.4501768e-42 0
10.233645 -4.4079361 0.93532038 34 0 0 6.4515781e-42 0
10.288717 -4.4898801 1.1023561 6 0 0 6.4529794e-42 0
10.308914 -4.5468798 1.2666533 6 0 0 6.4543807e-42 0
10.274668 -4.5623341 1.4211056 12 0 0 6.455782e-42 0
10.269781 -4.4005852 0.68317783 30 0 0 6.4571833e-42 0
10.23546 -4.4025455 0.82601494 39 0 0 6.4585846e-42 0
10.210539 -4.4147768 0.9728741 25 0 0 6.4599859e-42 0
10.291162 -4.5186925 1.1464204 6 0 0 6.4613872e-42 0
10.293606 -4.5615873 1.3074154 12 0 0 6.4627885e-42 0
10.236312 -4.5576515 1.4550972 12 0 0 6.4641898e-42 0
10.238945 -4.39959 0.7185207 31 0 0 6.4655911e-42 0
10.20386 -4.4003639 0.86144966 40 0 0 6.4669924e-42 0
10.237763 -4.463305 1.0205649 9 0 0 6.4683937e-42 0
10.291029 -4.5448928 1.1897475 8 0 0 6.469795e-42 0
10.266809 -4.5666151 1.3452908 12 0 0 6.4711963e-42 0
10.203178 -4.5582237 1.4915605 11 0 0 6.4725976e-42 0
10.214375 -4.403019 0.7542789 30 0 0 6.4739989e-42 0
10.175739 -4.4009724 0.89654762 39 0 0 6.4754002e-42 0
10.233594 -4.4834814 1.0613593 5 0 0 6.4768015e-42 0
10.276069 -4.5576143 1.2295425 13 0 0 6.4782028e-42 0
10.228038 -4.5587606 1.3784076 13 0 0 6.4796041e-42 0
10.172344 -4.5572281 1.5269034 12 0 0 6.4810054e-42 0
10.185075 -4.3992691 0.78859323 30 0 0 6.4824067e-42 0
10.14978 -4.401021 0.93150723 37 0 0 6.483808e-42 0
10.271963 -4.5385475 1.1120578 9 0 0 6.4852093e-42 0
10.264799 -4.5721493 1.2690161 11 0 0 6.4866106e-42 0
10.203541 -4.5622201 1.4151628 12 0 0 6.4880119e-42 0
10.13476 -4.5486045 1.5599585 11 0 0 6.4894132e-42 0
10.1548 -4.3953104 0.8229841 29 0 0 6.4908145e-42 0
10.13106 -4.4057031 0.96680588 32 0 0 6.4922158e-42 0
10.257492 -4.5482755 1.1499039 13 0 0 6.4936171e-42 0
10.221226 -4.5570846 1.2996917 13 0 0 6.4950184e-42 0
10.166858 -4.5537753 1.4471443 12 0 0 6.4964197e-42 0
10.099678 -4.542563 1.5927538 11 0 0 6.497821e-42 0
10.131975 -4.3950081 0.85772902 29 0 0 6.4992223e-42 0
10.138102 -4.4313788 1.0086298 15 0 0 6.5006236e-42 0
10.23808 -4.5518017 1.1862913 12 0 0 6.5020249e-42 0
10.190327 -4.550931 1.3331925 12 0 0 6.5034262e-42 0
10.148283 -4.5585179 1.4844369 12 0 0 6.5048275e-42 0
10.077481 -4.5444546 1.6283892 11 0 0 6.5062288e-42 0
10.116391 -4.3993392 0.89281297 29 0 0 6.5076301e-42 0
10.15851 -4.4671216 1.0521902 5 0 0 6.5090314e-42 0
10.221383 -4.556932 1.2224339 13 0 0 6.5104327e-42 0
10.169104 -4.5530314 1.3687512 12 0 0 6.511834e-42 0
10.114737 -4.5497222 1.5162039 12 0 0 6.5132353e-42 0
10.053473 -4.54492 1.663196 11 0 0 6.5146366e-42 0
10.095866 -4.3974681 0.9264378 27 0 0 2 0
10.195004 -4.5156035 1.1002179 7 0 0 2 0
10.193618 -4.5504274 1.2557195 13 0 0 2 0
10.142315 -4.5467362 1.4019606 12 0 0 2 0
10.093935 -4.5498676 1.5517927 11 0 0 2 0
10.046806 -4.5573878 1.7034056 11 0 0 2 0
10.084253 -4.4026651 0.96221215 25 0 0 2 0
10.204556 -4.538734 1.1409366 12 0 0 6.5258469e-42 0
10.174767 -4.5509906 1.2911551 13 0 0 6.5272482e-42 0
10.124228 -4.5484853 1.4373045 12 0 0 6.5286495e-42 0
10.073062 -4.5499821 1.5863849 12 0 0 6.5300508e-42 0
10.027745 -4.5589285 1.7388263 11 0 0 6.5314521e-42 0
10.075355 -4.4094658 0.99774176 17 0 0 6.5328534e-42 0
10.200189 -4.5496345 1.1800257 15 0 0 6.5342547e-42 0
10.1571 -4.5507851 1.3265291 13 0 0 6.535656e-42 0
10.109901 -4.5520778 1.4733238 12 0 0 6.5370573e-42 0
10.057136 -4.5511718 1.6215906 12 0 0 6.5384586e-42 0
10.001024 -4.5515938 1.7700573 10 0 0 6.5398599e-42 0
10.123199 -4.4624395 1.0458168 6 0 0 6.5412612e-42 0
10.183564 -4.5485983 1.213344 12 0 0 6.5426625e-42 0
10.139711 -4.548563 1.359939 13 0 0 6.5440638e-42 0
10.084647 -4.5430279 1.5055047 12 0 0 6.5454651e-42 0
10.035986 -4.5471063 1.6543252 11 0 0 6.5468664e-42 0
9.978899 -4.5473194 1.8028686 10 0 0 6.5482677e-42 0
10.157744 -4.5043073 1.0901763 6 0 0 6.549669e-42 0
10.166386 -4.5453987 1.2467691 12 0 0 6.5510703e-42 0
10.123298 -4.5465498 1.3932725 13 0 0 6.5524716e-42 0
10.092882 -4.562808 1.546422 11 0 0 6.5538729e-42 0
10.037331 -4.560267 1.6939367 11 0 0 6.5552742e-42 0
9.9757185 -4.5574508 1.8418967 10 0 0 6.5566755e-42 0
10.20267 -4.551528 1.1376356 11 0 0 6.5580768e-42 0
10.155755 -4.5456772 1.2816216 12 0 0 6.5594781e-42 0
10.107095 -4.5435591 1.4266212 13 0 0 6.5608794e-42 0
10.079466 -4.5614519 1.5805225 11 0 0 6.5622807e-42 0
10.02294 -4.558702 1.7281141 11 0 0 6.563682e-42 0
9.9566584 -4.5527945 1.8734964 10 0 0 6.5650833e-42 0
10.18424 -4.5439391 1.1692801 13 0 0 6.5664846e-42 0
10.144979 -4.5458946 1.3144804 12 0 0 6.5678859e-42 0
10.096531 -4.5427985 1.4594948 13 0 0 6.5692872e-42 0
10.071267 -4.5642805 1.6141185 11 0 0 6.5706885e-42 0
10.008615 -4.556098 1.7603127 11 0 0 6.5720898e-42 0
9.9405956 -4.5487957 1.9058633 9 0 0 6.5734911e-42 0
10.173886 -4.542201 1.2021687 13 0 0 6.5748924e-42 0
10.133862 -4.5429702 1.3474604 12 0 0 6.5762937e-42 0
10.090565 -4.5450983 1.4939493 13 0 0 6.577695e-42 0
10.06175 -4.5637598 1.6479125 11 0 0 6.5790963e-42 0
9.997077 -4.5551291 1.7932634 10 0 0 6.5804976e-42 0
9.9290571 -4.5478263 1.938814 9 0 0 6.5818989e-42 0
10.170218 -4.542933 1.2355028 13 0 0 6.5833002e-42 0
10.129009 -4.5444703 1.3808562 13 0 0 6.5847015e-42 0
10.087523 -4.5480247 1.5281738 12 0 0 6.5861028e-42 0
10.050844 -4.5598578 1.6809082 11 0 0 6.5875041e-42 0
9.9850521 -4.5509567 1.8243417 10 0 0 6.5889054e-42 0
9.9111176 -4.5372438 1.9685102 11 0 0 6.5903067e-42 0
10.164812 -4.5422697 1.2690052 12 0 0 6.591708e-42 0
10.123603 -4.5438075 1.4143587 12 0 0 6.5931093e-42 0
10.085529 -4.5511904 1.5633186 12 0 0 6.5945106e-42 0
10.046202 -4.5603805 1.7143191 11 0 0 6.5959119e-42 0
9.983058 -4.554122 1.8594865 10 0 0 6.5973132e-42 0
9.9063368 -4.538775 2.0029032 13 0 0 6.5987145e-42 0
10.164832 -4.5448146 1.3020182 13 0 0 6.6001158e-42 0
10.124671 -4.5465913 1.4482921 13 0 0 6.6015171e-42 0
10.081235 -4.5497274 1.5957632 12 0 0 6.6029184e-42 0
10.037312 -4.5558581 1.7451829 11 0 0 6.6043197e-42 0
9.9794626 -4.5548849 1.8938187 10 0 0 6.605721e-42 0
9.8708429 -4.5109711 2.0233612 6 0 0 6.6071223e-42 0
10.170427 -4.5506282 1.336535 13 0 0 6.6085236e-42 0
10.119752 -4.5429344 1.4798459 13 0 0 6.6099249e-42 0
10.082515 -4.5515342 1.6297113 12 0 0 6.6113262e-42 0
10.032254 -4.5532088 1.7777187 11 0 0 6.6127275e-42 0
9.9734983 -4.5509882 1.9244521 10 0 0 6.6141288e-42 0
9.8108358 -4.4592962 2.0322778 3 0 0 6.6155301e-42 0
10.176371 -4.5544558 1.3700845 12 0 0 6.6169313e-42 0
10.125486 -4.5477395 1.5133806 12 0 0 6.6183326e-42 0
10.098762 -4.5658102 1.6662089 11 0 0 6.6197339e-42 0
10.037014 -4.5578051 1.8113301 10 0 0 6.6211352e-42 0
9.9819517 -4.5584669 1.9607178 10 0 0 6.6225365e-42 0
9.8076582 -4.4570341 2.0636637 2 0 0 6.6239378e-42 0
10.180924 -4.554903 1.4028352 12 0 0 6.6253391e-42 0
10.127254 -4.5465517 1.5453795 12 0 0 6.6267404e-42 0
10.097954 -4.5620103 1.6974709 11 0 0 6.6281417e-42 0
10.034395 -4.5525794 1.8417636 10 0 0 6.629543e-42 0
9.9711132 -4.5473289 1.9879136 14 0 0 6.6309443e-42 0
9.8462658 -4.4906139 2.110996 3 0 0 6.6323456e-42 0
10.17928 -4.5498862 1.4331919 13 0 0 2 0
10.162582 -4.5742249 1.5871111 12 0 0 2 0
10.105083 -4.5650692 1.7309589 11 0 0 2 0
10.03895 -4.5530262 1.8745146 10 0 0 2 0
9.9552622 -4.5299592 2.0126534 7 0 0 2 0
9.9083471 -4.5426984 2.1681035 9 0 0 2 0
10.194835 -4.5568099 1.4669569 13 0 0 2 0
10.169225 -4.5740809 1.6187268 11 0 0 6.643556e-42 0
10.107965 -4.5630817 1.7618994 11 0 0 6.6449573e-42 0
10.045382 -4.5538602 1.9061157 9 0 0 6.6463586e-42 0
9.9041014 -4.4801941 2.0218768 3 0 0 6.6477599e-42 0
9.9367208 -4.5647907 2.2105086 10 0 0 6.6491612e-42 0
10.202452 -4.5568748 1.4984959 13 0 0 6.6505625e-42 0
10.178028 -4.5733771 1.6502039 11 0 0 6.6519638e-42 0
10.117605 -4.5635948 1.7942822 11 0 0 6.6533651e-42 0
10.06101 -4.5608144 1.9408776 10 0 0 6.6547664e-42 0
9.9039211 -4.4723921 2.0502086 2 0 0 6.6561677e-42 0
9.945385 -4.5650954 2.2429683 10 0 0 6.657569e-42 0
10.219332 -4.5620217 1.531217 13 0 0 6.6589703e-42 0
10.189617 -4.5743074 1.6824332 11 0 0 6.6603716e-42 0
10.127384 -4.5630999 1.8256826 10 0 0 6.6617729e-42 0
10.066192 -4.5572586 1.9706978 14 0 0 6.6631742e-42 0
9.9318733 -4.490243 2.0887623 3 0 0 6.6645755e-42 0
9.9539795 -4.5653687 2.274431 10 0 0 6.6659768e-42 0
10.2328 -4.5633388 1.562296 13 0 0 6.6673781e-42 0
10.197723 -4.5713787 1.7120233 11 0 0 6.6687794e-42 0
10.143499 -4.5670605 1.8584957 10 0 0 6.6701807e-42 0
10.066499 -4.546463 1.99708 10 0 0 6.671582e-42 0
10.00468 -4.5446234 2.1450262 8 0 0 2 0
9.965498 -4.5662689 2.3056636 10 0 0 2 0
10.264302 -4.5778141 1.5976883 12 0 0 2 0
10.209802 -4.5693154 1.7423036 11 0 0 2 0
10.15627 -4.5661526 1.8876874 10 0 0 2 0
10.044801 -4.5154467 2.0146372 4 0 0 2 0
10.052279 -4.5739775 2.1908376 11 0 0 2 0
9.9839182 -4.5697303 2.3403323 10 0 0 6.6827924e-42 0
10.290028 -4.5848699 1.6307164 12 0 0 6.6841937e-42 0
10.22738 -4.5704908 1.7730908 11 0 0 6.685595e-42 0
10.175731 -4.5687842 1.9203005 9 0 0 6.6869963e-42 0
10.018782 -4.4793539 2.02865 2 0 0 6.6883976e-42 0
10.068955 -4.5749745 2.2226987 11 0 0 6.6897989e-42 0
9.9987831 -4.5693016 2.3713648 10 0 0 6.6912002e-42 0
10.308864 -4.5853071 1.6624389 12 0 0 6.6926015e-42 0
10.258468 -4.5817933 1.8076079 11 0 0 6.6940028e-42 0
10.211279 -4.5841556 1.9573801 12 0 0 6.6954041e-42 0
10.043534 -4.4862013 2.0617549 2 0 0 6.6968054e-42 0
10.092943 -4.5806355 2.2558951 11 0 0 6.6982067e-42 0
10.017338 -4.5706849 2.4020758 10 0 0 6.699608e-42 0
10.325883 -4.5832486 1.6903567 11 0 0 6.7010093e-42 0
10.272912 -4.5771227 1.8347887 10 0 0 6.7024106e-42 0
10.21876 -4.572835 1.9822584 13 0 0 6.7038119e-42 0
10.137096 -4.5502162 2.1212413 6 0 0 6.7052132e-42 0
10.115469 -4.5828853 2.2872961 10 0 0 6.7066145e-42 0
10.03875 -4.5737343 2.4345353 10 0 0 6.7080157e-42 0
10.337125 -4.5737715 1.7159101 7 0 0 6.709417e-42 0
10.30651 -4.5858798 1.8682003 10 0 0 6.7108183e-42 0
10.208623 -4.5453324 1.9998773 6 0 0 2 0
10.190962 -4.5777974 2.1636465 10 0 0 2 0
10.139945 -4.5855522 2.3185437 10 0 0 2 0
10.067895 -4.5794916 2.4683604 10 0 0 2 0
10.340569 -4.5564275 1.7382557 5 0 0 2 0
10.330359 -4.5863519 1.8985571 10 0 0 2 0
10.185181 -4.5056548 2.0108056 3 0 0 2 0
10.229019 -4.5906229 2.1996205 11 0 0 6.7220287e-42 0
10.16282 -4.5858159 2.3489776 10 0 0 6.72343e-42 0
10.095158 -4.5837936 2.50036 9 0 0 6.7248313e-42 0
10.349723 -4.5413442 1.7611232 4 0 0 6.7262326e-42 0
10.354414 -4.5847774 1.9259533 10 0 0 6.7276339e-42 0
10.214741 -4.5083885 2.0416846 3 0 0 6.7290352e-42 0
10.256004 -4.5907445 2.2297626 10 0 0 6.7304365e-42 0
10.195029 -4.5911918 2.3815906 10 0 0 6.7318378e-42 0
10.119357 -4.5822802 2.5297506 9 0 0 6.7332391e-42 0
10.34648 -4.5153341 1.7792025 4 0 0 6.7346404e-42 0
10.354933 -4.5606108 1.9447076 7 0 0 6.7360417e-42 0
10.295 -4.5540309 2.0906587 5 0 0 6.737443e-42 0
10.294477 -4.6005449 2.2627909 11 0 0 6.7388443e-42 0
10.226749 -4.5933652 2.4123316 10 0 0 6.7402456e-42 0
10.155328 -4.5894995 2.5630391 9 0 0 6.7416469e-42 0
10.378196 -4.516438 1.8069669 2 0 0 6.7430482e-42 0
10.350994 -4.5323749 1.9608997 6 0 0 6.7444495e-42 0
10.366209 -4.5874176 2.1346443 9 0 0 6.7458508e-42 0
10.321951 -4.597672 2.2909837 10 0 0 6.7472521e-42 0
10.262858 -4.599576 2.4446375 10 0 0 6.7486534e-42 0
10.18726 -4.5906954 2.5937946 9 0 0 6.7500547e-42 0
10.410888 -4.5177503 1.8346546 3 0 0 6.751456e-42 0
10.369761 -4.5203876 1.9839821 3 0 0 6.7528573e-42 0
10.375991 -4.5683317 2.1545808 6 0 0 6.7542586e-42 0
10.366556 -4.6077781 2.3245635 11 0 0 6.7556599e-42 0
10.300502 -4.6030326 2.4759147 10 0 0 6.7570612e-42 0
10.226366 -4.5975633 2.6268673 9 0 0 6.7584625e-42 0
10.458484 -4.5274439 1.8660252 1 0 0 6.7598638e-42 0
10.409974 -4.5253863 2.0130203 1 0 0 6.7612651e-42 0
10.381453 -4.5441694 2.1709723 4 0 0 6.7626664e-42 0
10.388248 -4.596417 2.3474162 8 0 0 6.7640677e-42 0
10.339885 -4.6078839 2.5070233 10 0 0 6.765469e-42 0
10.269582 -4.6042886 2.6596487 9 0 0 6.7668703e-42 0
10.506291 -4.53616 1.8974104 2 0 0 6.7682716e-42 0
10.451372 -4.5296164 2.0419965 1 0 0 6.7696729e-42 0
10.405094 -4.533226 2.1936717 1 0 0 6.7710742e-42 0
10.389462 -4.5672088 2.3612604 4 0 0 6.7724755e-42 0
10.387909 -4.6166921 2.5414 10 0 0 6.7738768e-42 0
10.311197 -4.6086106 2.6916156 9 0 0 6.7752781e-42 0
10.546992 -4.5381651 1.9244993 1 0 0 6.7766794e-42 0
10.505728 -4.5418105 2.0748091 1 0 0 6.7780807e-42 0
10.450254 -4.539299 2.2233231 3 0 0 6.779482e-42 0
10.399938 -4.5430818 2.376287 3 0 0 6.7808833e-42 0
10.402772 -4.5966029 2.557992 5 0 0 6.7822846e-42 0
10.357477 -4.614954 2.7231846 9 0 0 6.7836859e-42 0
10.636377 -4.5775037 1.9679936 4 0 0 6.7850872e-42 0
10.553048 -4.5473232 2.104322 1 0 0 6.7864885e-42 0
10.487755 -4.5364976 2.2487845 1 0 0 6.7878898e-42 0
10.431102 -4.5358243 2.4003365 1 0 0 6.7892911e-42 0
10.407117 -4.5659733 2.5686455 4 0 0 6.7906924e-42 0
10.404943 -4.6205282 2.7546916 9 0 0 6.7920937e-42 0
10.661619 -4.5627661 1.9876846 3 0 0 6.793495e-42 0
10.67322 -4.6098299 2.1589265 7 0 0 6.7948963e-42 0
10.550679 -4.5526171 2.2838676 1 0 0 6.7962976e-42 0
10.481348 -4.5419641 2.4296193 1 0 0 6.7976989e-42 0
10.434936 -4.5538483 2.5890737 1 0 0 6.7991001e-42 0
10.418694 -4.5950418 2.7685211 5 0 0 6.8005014e-42 0
10.707755 -4.562851 2.0134375 3 0 0 6.8019027e-42 0
10.759896 -4.642437 2.2018199 17 0 0 6.803304e-42 0
10.622938 -4.5738492 2.3211296 1 0 0 6.8047053e-42 0
10.536685 -4.5492392 2.4615092 1 0 0 6.8061066e-42 0
10.473971 -4.5482912 2.6135063 3 0 0 6.8075079e-42 0
10.418996 -4.5573192 2.7736659 4 0 0 6.8089092e-42 0
10.839487 -4.628871 2.0681033 9 0 0 6.8103105e-42 0
10.821774 -4.6521206 2.232161 17 0 0 6.8117118e-42 0
10.775718 -4.6568918 2.3898029 16 0 0 6.8131131e-42 0
10.595711 -4.5583272 2.4930775 1 0 0 6.8145144e-42 0
10.530494 -4.5547981 2.6453347 1 0 0 6.8159157e-42 0
10.461793 -4.5536056 2.798774 1 0 0 6.817317e-42 0
10.929505 -4.6590796 2.1078203 16 0 0 6.8187183e-42 0
10.881078 -4.6591916 2.2617645 17 0 0 6.8201196e-42 0
10.832446 -4.6613507 2.4186697 17 0 0 6.8215209e-42 0
10.78214 -4.6672726 2.5775857 14 0 0 6.8229222e-42 0
10.587011 -4.5602345 2.6741872 1 0 0 6.8243235e-42 0
10.50515 -4.5469289 2.8229296 1 0 0 6.8257248e-42 0
10.991871 -4.6657686 2.1362119 17 0 0 6.8271261e-42 0
10.944491 -4.6661201 2.2910764 17 0 0 6.8285274e-42 0
10.89746 -4.6706824 2.4487953 16 0 0 6.8299287e-42 0
10.840264 -4.6699853 2.606406 15 0 0 6.83133e-42 0
10.751651 -4.6490526 2.752861 10 0 0 6.8327313e-42 0
10.582638 -4.5682883 2.8618164 2 0 0 6.8341326e-42 0
11.053613 -4.6702633 2.1637127 16 0 0 6.8355339e-42 0
11.011595 -4.6748614 2.3200665 18 0 0 6.8369352e-42 0
10.966658 -4.679903 2.4796257 15 0 0 6.8383365e-42 0
10.902842 -4.6756968 2.6348121 15 0 0 6.8397378e-42 0
10.846903 -4.6804585 2.7971795 14 0 0 6.8411391e-42 0
10.698795 -4.6166558 2.9181488 4 0 0 6.8425404e-42 0
11.132763 -4.6857204 2.1946361 16 0 0 6.8439417e-42 0
11.074732 -4.6776094 2.3475204 16 0 0 6.845343e-42 0
11.034042 -4.6876965 2.5096276 16 0 0 6.8467443e-42 0
10.980259 -4.6908283 2.6688802 14 0 0 6.8481456e-42 0
10.910949 -4.6844544 2.8265357 14 0 0 2 0
10.839894 -4.6818118 2.9852052 13 0 0 2 0
11.209549 -4.6975875 2.2248375 15 0 0 2 0
11.171298 -4.7050986 2.3848424 15 0 0 2 0
11.106514 -4.6955571 2.5392601 14 0 0 2 0
11.052038 -4.6975331 2.6996019 15 0 0 2 0
10.976037 -4.6876197 2.8538365 14 0 0 2 0
10.909513 -4.6890764 3.0160654 13 0 0 6.859356e-42 0
11.284801 -4.7060127 2.2522464 15 0 0 6.8607573e-42 0
11.244046 -4.7109423 2.4125111 15 0 0 6.8621586e-42 0
11.1817 -4.7050214 2.5686479 14 0 0 6.8635599e-42 0
11.117265 -4.6996903 2.7259202 14 0 0 6.8649612e-42 0
11.062446 -4.7047219 2.8902047 14 0 0 6.8663625e-42 0
10.985962 -4.6988716 3.0493646 13 0 0 6.8677638e-42 0
11.358662 -4.7110572 2.278856 15 0 0 2 0
11.315958 -4.715569 2.4392741 15 0 0 2 0
11.256397 -4.7112823 2.596163 14 0 0 2 0
11.195658 -4.7088337 2.7560894 14 0 0 2 0
11.133454 -4.7091703 2.9180417 14 0 0 2 0
11.063453 -4.7078371 3.0806069 14 0 0 2 0
11.419773 -4.7060905 2.2986684 18 0 0 2 0
11.395392 -4.7238817 2.4673874 15 0 0 6.8789742e-42 0
11.335904 -4.7196259 2.6252732 14 0 0 6.8803755e-42 0
11.278787 -4.7200289 2.7868569 14 0 0 6.8817768e-42 0
11.209411 -4.7146935 2.9464917 13 0 0 6.8831781e-42 0
11.14415 -4.7164817 3.112632 13 0 0 6.8845794e-42 0
11.453094 -4.6786122 2.3081377 5 0 0 6.8859807e-42 0
11.446821 -4.7095923 2.4821668 10 0 0 6.887382e-42 0
11.426695 -4.7334995 2.6564088 15 0 0 2 0
11.360455 -4.7278128 2.8158286 14 0 0 2 0
11.301043 -4.7308536 2.9815087 13 0 0 2 0
11.223032 -4.722631 3.140852 13 0 0 2 0
11.504734 -4.6633449 2.3229313 1 0 0 2 0
11.464051 -4.6683044 2.4841933 4 0 0 2 0
11.480355 -4.7186794 2.6720462 7 0 0 2 0
11.456264 -4.7427912 2.8485744 15 0 0 6.8985923e-42 0
11.381459 -4.7342482 3.0086994 14 0 0 6.8999936e-42 0
11.315434 -4.7348499 3.1749315 13 0 0 6.9013949e-42 0
11.574065 -4.6580925 2.3421595 1 0 0 6.9027962e-42 0
11.533246 -4.6640611 2.5044036 3 0 0 6.9041975e-42 0
11.492358 -4.6710682 2.6686263 2 0 0 6.9055988e-42 0
11.491951 -4.7127056 2.854944 6 0 0 6.9070001e-42 0
11.480266 -4.7498832 3.042212 15 0 0 2 0
11.401495 -4.7415442 3.204623 13 0 0 2 0
11.708035 -4.6987944 2.3823953 15 0 0 2 0
11.657537 -4.6965089 2.5425816 9 0 0 2 0
11.573744 -4.6736016 2.692764 1 0 0 2 0
11.522344 -4.6773348 2.8578458 2 0 0 2 0
11.509057 -4.7121091 3.0443006 5 0 0 2 0
11.474872 -4.7371879 3.2255383 7 0 0 6.9182105e-42 0
11.802652 -4.7072749 2.4084046 15 0 0 6.9196118e-42 0
11.7594 -4.7106924 2.5719056 14 0 0 6.9210131e-42 0
11.707513 -4.7112231 2.7351148 14 0 0 6.9224144e-42 0
11.603242 -4.6766653 2.880111 1 0 0 6.9238157e-42 0
11.55512 -4.6863055 3.0507925 2 0 0 6.925217e-42 0
11.506517 -4.7000093 3.2263989 6 0 0 6.9266183e-42 0
11.90451 -4.7203884 2.434752 15 0 0 2 0
11.866 -4.7269278 2.6018271 15 0 0 2 0
11.804365 -4.7191744 2.7619827 14 0 0 2 0
11.746562 -4.7194915 2.9276311 13 0 0 2 0
11.65093 -4.695087 3.0797164 1 0 0 2 0
11.583168 -4.6942935 3.2461169 2 0 0 2 0
12.021769 -4.7399592 2.4658086 17 0 0 2 0
11.960272 -4.7311974 2.6249819 15 0 0 6.9378287e-42 0
11.907553 -4.7315803 2.7902617 14 0 0 6.93923e-42 0
11.849195 -4.7297335 2.9560173 13 0 0 6.9406313e-42 0
11.781993 -4.7259769 3.1214657 11 0 0 6.9420326e-42 0
11.669435 -4.6927433 3.2690251 4 0 0 6.9434339e-42 0
12.088731 -4.7238507 2.4775162 1 0 0 6.9448352e-42 0
12.055794 -4.7336583 2.6460955 9 0 0 6.9462365e-42 0
12.017013 -4.7432837 2.8181107 15 0 0 6.9476378e-42 0
11.956778 -4.7410502 2.9850166 13 0 0 6.9490391e-42 0
11.871323 -4.7240448 3.1431618 6 0 0 6.9504404e-42 0
11.771378 -4.7018299 3.2984996 21 0 0 6.9518417e-42 0
12.174914 -4.72013 2.493475 17 0 0 6.953243e-42 0
12.166156 -4.7455401 2.6728702 2 0 0 6.9546443e-42 0
12.095192 -4.7337437 2.8338227 2 0 0 6.9560456e-42 0
12.063452 -4.7511191 3.0121129 14 0 0 6.9574469e-42 0
11.972496 -4.730875 3.1697519 2 0 0 6.9588482e-42 0
11.861821 -4.6990976 3.3191364 35 0 0 6.9602495e-42 0
12.231286 -4.6934505 2.4982469 46 0 0 6.9616508e-42 0
12.215909 -4.7153521 2.6752181 58 0 0 6.9630521e-42 0
12.200259 -4.7403398 2.8571293 9 0 0 6.9644534e-42 0
12.148528 -4.7430706 3.0282848 2 0 0 6.9658547e-42 0
12.082516 -4.7396154 3.1966476 2 0 0 6.967256e-42 0
11.946622 -4.6930661 3.3372724 35 0 0 6.9686573e-42 0
12.350141 -4.7081571 2.5233185 48 0 0 6.9700586e-42 0
12.297219 -4.704391 2.6877382 53 0 0 6.9714599e-42 0
12.236635 -4.6979461 2.8517902 49 0 0 6.9728612e-42 0
12.233671 -4.733983 3.0424769 58 0 0 6.9742625e-42 0
12.214902 -4.7625313 3.2335312 8 0 0 6.9756638e-42 0
12.042915 -4.6915865 3.3574481 38 0 0 6.9770651e-42 0
12.466486 -4.719213 2.5456738 49 0 0 6.9784664e-42 0
12.413847 -4.7144995 2.7111058 54 0 0 6.9798677e-42 0
12.351175 -4.7086458 2.8762932 49 0 0 6.9812689e-42 0
12.29046 -4.7042789 3.0443025 48 0 0 6.9826702e-42 0
12.246676 -4.7160077 3.2236352 49 0 0 6.9840715e-42 0
12.159976 -4.7018795 3.3867979 42 0 0 6.9854728e-42 0
12.587988 -4.7303653 2.5686574 50 0 0 6.9868741e-42 0
12.548239 -4.7346544 2.7399042 55 0 0 6.9882754e-42 0
12.48585 -4.7278538 2.9061034 50 0 0 6.9896767e-42 0
12.419495 -4.7212567 3.0745881 49 0 0 6.991078e-42 0
12.353627 -4.7178626 3.2449453 47 0 0 6.9924793e-42 0
12.285533 -4.7160673 3.4174206 43 0 0 6.9938806e-42 0
12.72196 -4.7462783 2.5936043 50 0 0 6.9952819e-42 0
12.672948 -4.7454863 2.7636693 54 0 0 6.9966832e-42 0
12.626237 -4.7493224 2.936435 52 0 0 6.9980845e-42 0
12.561975 -4.7432046 3.1067605 52 0 0 6.9994858e-42 0
12.495277 -4.7396626 3.2791882 47 0 0 7.0008871e-42 0
12.423704 -4.7350774 3.4519999 45 0 0 7.0022884e-42 0
12.839418 -4.7503376 2.611079 31 0 0 1 0
12.811656 -4.7634511 2.7892141 50 0 0 1 0
12.758752 -4.7628932 2.9625614 50 0 0 7.0064923e-42 0
12.696374 -4.7582316 3.1347127 51 0 0 7.0078936e-42 0
12.631559 -4.7561469 3.3089659 47 0 0 7.0092949e-42 0
12.559083 -4.7513833 3.4828517 44 0 0 7.0106962e-42 0
16.218945 -6.754127 3.7079561 51 0 0 7.0120975e-42 0
16.170502 -6.7627397 3.9499102 51 0 0 7.0134988e-42 0
12.875657 -4.7647886 2.9801426 13 0 0 1 0
12.840317 -4.7773938 3.1648583 44 0 0 1 0
12.775646 -4.7753701 3.3411059 46 0 0 7.0177027e-42 0
12.701431 -4.7692118 3.5151591 44 0 0 7.019104e-42 0
16.437855 -6.7905893 3.747205 49 0 0 7.0205053e-42 0
16.383772 -6.7969718 3.9896348 51 0 0 7.0219066e-42 0
16.303362 -6.790453 4.2273388 49 0 0 7.0233079e-42 0
16.232567 -6.7942958 4.4720545 45 0 0 7.0247092e-42 0
12.907885 -4.7847605 3.3653741 18 0 0 1 0
12.836673 -4.7803288 3.5431707 38 0 0 1 0
53.559101 -28.863691 15.806741 6 0 0 7.0289131e-42 0
16.555035 -6.8003983 4.0112686 24 0 0 7.0303144e-42 0
16.517475 -6.820775 4.2671223 47 0 0 7.0317157e-42 0
16.433867 -6.8167148 4.5099964 46 0 0 7.033117e-42 0
16.357512 -6.8194284 4.7591605 43 0 0 7.0345183e-42 0
16.246666 -6.8074145 4.999228 42 0 0 7.0359196e-42 0
53.193237 -28.256994 15.540799 6 0 0 7.0373209e-42 0
53.362198 -28.507351 16.622261 15 0 0 7.0387222e-42 0
53.312935 -28.639448 17.658905 65 0 0 7.0401235e-42 0
16.619627 -6.8264194 4.5374126 7 0 0 7.0415248e-42 0
16.553728 -6.8355842 4.7936492 40 0 0 7.0429261e-42 0
16.463722 -6.8353748 5.0438876 39 0 0 7.0443274e-42 0
53.148876 -27.83872 15.376269 23 0 0 7.0457287e-42 0
53.490456 -28.181168 16.503633 6 0 0 7.04713e-42 0
53.340302 -28.250969 17.496307 71 0 0 7.0485313e-42 0
53.519875 -28.721933 19.742783 52 0 0 2 0
16.664331 -6.8504415 5.0790949 12 0 0 7.0513339e-42 0
53.245701 -27.507683 15.249026 64 0 0 7.0527352e-42 0
53.294743 -27.674046 16.272511 94 0 0 7.0541365e-42 0
53.370369 -27.874348 17.335157 69 0 0 7.0555378e-42 0
53.365845 -28.039921 18.39262 7 0 0 7.0569391e-42 0
53.600777 -28.360285 19.577507 27 0 0 7.0583404e-42 0
53.519707 -28.512981 20.669975 32 0 0 7.0597417e-42 0
53.422352 -27.217642 15.139836 4 0 0 7.061143e-42 0
53.350098 -27.311157 16.118141 68 0 0 7.0625443e-42 0
53.408928 -27.493286 17.165508 62 0 0 7.0639456e-42 0
53.461246 -27.685625 18.236103 61 0 0 7.0653469e-42 0
53.526508 -27.904924 19.349068 31 0 0 7.0667482e-42 0
53.57328 -28.125608 20.478373 60 0 0 2 0
53.356133 -26.791193 14.949049 3 0 0 2 0
53.392818 -26.946434 15.954706 7 0 0 2 0
53.42691 -27.10866 16.985415 58 0 0 2 0
53.220444 -27.14958 17.952948 6 0 0 2 0
53.554363 -27.510902 19.151503 68 0 0 7.0751559e-42 0
53.616043 -27.733768 20.280664 61 0 0 7.0765572e-42 0
53.374401 -26.413954 14.77974 3 0 0 7.0779585e-42 0
53.419796 -26.564846 15.779889 6 0 0 7.0793598e-42 0
53.486683 -26.742352 16.812777 51 0 0 7.0807611e-42 0
53.467079 -26.886868 17.842888 9 0 0 7.0821624e-42 0
53.913113 -27.303585 19.078791 8 0 0 7.0835637e-42 0
53.64505 -27.338753 20.069002 75 0 0 7.084965e-42 0
53.3223 -26.002815 14.588462 19 0 0 7.0863663e-42 0
53.433159 -26.186344 15.59693 10 0 0 7.0877676e-42 0
53.596535 -26.410561 16.653521 24 0 0 7.0891689e-42 0
53.846077 -26.696239 17.773218 6 0 0 7.0905702e-42 0
53.976887 -26.934744 18.884878 10 0 0 7.0919715e-42 0
53.686172 -26.949413 19.85729 53 0 0 7.0933728e-42 0
50.815456 -24.280428 13.654666 40 0 0 1 0
53.465118 -25.818035 15.417331 6 0 0 7.0961754e-42 0
53.624374 -26.034058 16.464437 13 0 0 7.0975767e-42 0
53.581478 -26.158871 17.470755 18 0 0 7.098978e-42 0
53.886806 -26.481735 18.631428 7 0 0 7.1003793e-42 0
53.795364 -26.601742 19.672489 35 0 0 7.1017806e-42 0
50.235653 -23.727091 14.203955 33 0 0 1 0
51.027813 -24.266661 15.389045 92 0 0 7.1045832e-42 0
51.039211 -24.404545 16.351927 35 0 0 1 0
53.912163 -26.091984 18.413843 6 0 0 7.1073858e-42 0
53.949757 -26.281347 19.497629 8 0 0 7.1087871e-42 0
49.894985 -23.089407 13.02738 3 0 0 1 0
50.388588 -23.450943 14.065956 2 0 0 1 0
50.033718 -23.380608 14.865067 5 0 0 7.112991e-42 0
50.497471 -23.752909 15.95762 2 0 0 7.1143923e-42 0
50.663902 -23.978249 16.977844 17 0 0 1 0
51.228001 -24.428175 18.188162 71 0 0 7.1171949e-42 0
50.030144 -22.812399 12.882668 2 0 0 1 0
52.65929 -24.259489 14.568339 4 0 0 7.1199975e-42 0
49.95295 -22.98015 14.638417 46 0 0 7.1213988e-42 0
51.377666 -23.839439 16.050901 2 0 0 7.1228001e-42 0
50.413227 -23.472359 16.664383 3 0 0 7.1242014e-42 0
50.205635 -23.510895 17.558853 25 0 0 3 0
52.684135 -23.797472 13.44425 14 0 0 3 0
52.748241 -23.936184 14.388258 6 0 0 3 0
50.029484 -22.667496 14.459908 68 0 0 3 0
52.863194 -24.232201 16.340853 7 0 0 3 0
51.57132 -23.70426 16.865549 2 0 0 7.1326092e-42 0
50.200768 -23.137981 17.32889 58 0 0 7.1340105e-42 0
52.712257 -23.445467 13.24737 10 0 0 7.1354118e-42 0
50.186481 -22.287289 13.413042 3 0 0 1 0
50.175053 -22.38838 14.298457 47 0 0 7.1382144e-42 0
50.232014 -22.530415 15.225827 1 0 0 7.1396157e-42 0
52.898857 -24.002932 17.107601 3 0 0 7.141017e-42 0
50.300468 -22.825964 17.133648 37 0 0 7.1424183e-42 0
52.703808 -23.078259 13.039554 6 0 0 7.1438196e-42 0
50.446171 -22.067011 13.28468 1 0 0 7.1452209e-42 0
50.389454 -22.143784 14.154051 19 0 0 7.1466222e-42 0
52.883278 -23.492876 15.886594 5 0 0 7.1480235e-42 0
50.343552 -22.353916 15.966422 7 0 0 1 0
50.496323 -22.559658 16.968174 9 0 0 7.1508261e-42 0
51.052544 -21.925911 12.381598 7 0 0 1 0
50.734962 -21.866394 13.162639 3 0 0 7.1536287e-42 0
50.743671 -21.969799 14.049542 4 0 0 7.15503e-42 0
50.561012 -21.988377 14.893675 2 0 0 1 0
50.782581 -22.216022 15.890794 3 0 0 7.1578326e-42 0
51.264462 -22.580341 17.009369 6 0 0 7.1592339e-42 0
51.043419 -21.580006 12.171167 81 0 0 7.1606352e-42 0
51.10136 -21.695978 13.053128 74 0 0 7.1620365e-42 0
51.190823 -21.838634 13.965096 79 0 0 7.1634377e-42 0
51.075687 -21.885391 14.831577 15 0 0 7.164839e-42 0
51.107597 -22.016993 15.764085 3 0 0 7.1662403e-42 0
51.836643 -22.494139 16.96768 2 0 0 7.1676416e-42 0
51.069813 -21.252052 11.965648 78 0 0 7.1690429e-42 0
51.125095 -21.363245 12.839924 87 0 0 7.1704442e-42 0
51.189747 -21.487034 13.737206 88 0 0 7.1718455e-42 0
51.263145 -21.626354 14.657456 80 0 0 7.1732468e-42 0
51.331215 -21.768917 15.597047 90 0 0 7.1746481e-42 0
51.381973 -21.912092 16.552916 79 0 0 7.1760494e-42 0
51.82486 -21.263889 11.946867 47 0 0 7.1774507e-42 0
51.672474 -21.277424 12.770921 50 0 0 7.178852e-42 0
51.451607 -21.26685 13.584608 45 0 0 7.1802533e-42 0
51.299316 -21.298159 14.432179 54 0 0 7.1816546e-42 0
51.341042 -21.42354 15.355142 76 0 0 7.1830559e-42 0
51.393806 -21.563955 16.302927 70 0 0 7.1844572e-42 0
52.855007 -21.39105 11.983932 43 0 0 7.1858585e-42 0
52.677292 -21.39617 12.815086 53 0 0 7.1872598e-42 0
52.457508 -21.386059 13.643728 48 0 0 7.1886611e-42 0
52.259331 -21.3962 14.489243 42 0 0 7.1900624e-42 0
52.039227 -21.399618 15.337551 45 0 0 7.1914637e-42 0
51.788467 -21.396379 16.182259 42 0 0 7.192865e-42 0
53.32814 -21.261967 11.870456 111 0 0 7.1942663e-42 0
53.707523 -21.513105 12.851452 79 0 0 7.1956676e-42 0
53.77552 -21.635977 13.775607 77 0 0 7.1970689e-42 0
53.080524 -21.41638 14.486495 54 0 0 7.1984702e-42 0
53.087528 -21.525215 15.418488 50 0 0 7.1998715e-42 0
52.844543 -21.525976 16.28157 42 0 0 7.2012728e-42 0
52.92268 -20.743959 11.538436 74 0 0 7.2026741e-42 0
53.715672 -21.171492 12.611553 74 0 0 7.2040754e-42 0
53.785408 -21.28849 13.528741 96 0 0 7.2054767e-42 0
53.161671 -21.105961 14.255416 61 0 0 7.206878e-42 0
53.924198 -21.545683 15.417623 82 0 0 7.2082793e-42 0
53.966309 -21.676977 16.387518 62 0 0 7.2096806e-42 0
53.129719 -20.498119 11.349451 106 0 0 7.2110819e-42 0
53.738712 -20.841246 12.370231 79 0 0 7.2124832e-42 0
53.814281 -20.957355 13.281007 87 0 0 7.2138845e-42 0
53.729359 -21.013985 14.167075 105 0 0 7.2152858e-42 0
53.928261 -21.199741 15.153074 68 0 0 7.2166871e-42 0
53.997185 -21.334745 16.121927 71 0 0 7.2180884e-42 0
53.669209 -20.399712 11.237262 49 0 0 7.2194897e-42 0
53.907421 -20.576666 12.164523 10 0 0 7.220891e-42 0
53.926132 -20.669003 13.057063 5 0 0 7.2222923e-42 0
53.963413 -20.772795 13.968975 20 0 0 7.2236936e-42 0
53.679226 -20.744816 14.803815 112 0 0 7.2250949e-42 0
53.995914 -20.983295 15.839877 82 0 0 7.2264962e-42 0
53.035179 -19.806 10.84482 11 0 0 7.2278975e-42 0
